ply
format ascii 1.0
comment https://github.com/mikedh/trimesh
element vertex 1020
property float x
property float y
property float z
property uchar red
property uchar green
property uchar blue
property uchar alpha
end_header
-13.66981983 2.96297193 -40.43952179 0 0 0 0
-12.56192970 4.22808599 -39.54793167 0 0 0 0
-11.62934017 2.42388010 -39.90002823 0 0 0 0
-59.97735977 28.18176079 -156.72349548 0 0 0 0
-24.43527031 4.35904312 -34.31727982 0 0 0 0
-23.71776962 5.32934189 -34.99832916 0 0 0 0
-23.94417000 4.07678604 -35.68859100 0 0 0 0
-86.13849640 52.19115829 -280.87100220 0 0 0 0
-86.18340302 53.77185059 -281.78698730 0 0 0 0
-87.12933350 52.33752823 -282.15670776 0 0 0 0
-70.73940277 31.77504921 -21.42383957 0 0 0 0
-72.00935364 32.13108826 -20.92938995 0 0 0 0
-70.96633911 32.73712921 -20.29550934 0 0 0 0
-80.31378937 25.24069023 -421.38708496 0 0 0 0
-80.63108826 26.30460930 -423.17309570 0 0 0 0
-81.99376678 26.20874977 -421.45849609 0 0 0 0
-44.52033997 20.70196915 -169.94039917 0 0 0 0
-44.66088867 20.47351074 -168.24690247 0 0 0 0
-91.44539642 30.23188972 -458.08578491 0 0 0 0
-90.80388641 28.92143059 -457.62118530 0 0 0 0
-91.92974091 29.09267044 -457.97140503 0 0 0 0
-111.97940063 81.62468719 -318.45651245 0 0 0 0
5.34068012 -16.85420990 39.30144119 0 0 0 0
4.95368814 -15.92753983 39.00325012 0 0 0 0
4.56324816 -16.83119011 38.80839920 0 0 0 0
-82.72695923 17.00167084 -1.79052901 0 0 0 0
-82.99741364 17.40716934 -0.58002663 0 0 0 0
-83.73214722 17.55106926 -1.93397403 0 0 0 0
-101.78430176 58.76531982 -399.81179810 0 0 0 0
-101.48079681 60.16772842 -400.83468628 0 0 0 0
-101.52100372 60.49457169 -399.10778809 0 0 0 0
-88.94523621 84.48052216 -384.04849243 0 0 0 0
-89.18843079 84.97215271 -382.80050659 0 0 0 0
-90.23327637 84.19685364 -382.62860107 0 0 0 0
-56.63842010 -30.33707047 -196.63789368 0 0 0 0
-56.55290985 -28.89316940 -196.65159607 0 0 0 0
-57.07749939 -29.53074074 -195.82620239 0 0 0 0
-87.73857880 2.35955095 -416.55160522 0 0 0 0
-88.80860901 1.27488196 -417.47540283 0 0 0 0
-87.28843689 0.90893853 -416.45379639 0 0 0 0
-82.53282166 -6.30842400 -470.60360718 0 0 0 0
-82.88553619 -6.92844105 -469.88269043 0 0 0 0
-82.47785187 -6.00445080 -469.13821411 0 0 0 0
-96.41442871 72.51001740 -297.52389526 0 0 0 0
-97.43148804 73.37880707 -298.51690674 0 0 0 0
-108.74189758 86.65956116 -328.95858765 0 0 0 0
-116.14369965 56.56845856 -307.16711426 0 0 0 0
-115.97560120 55.72195053 -308.34451294 0 0 0 0
-84.52243042 26.36693001 -452.82971191 0 0 0 0
-83.96527100 27.99613953 -452.58511353 0 0 0 0
-83.35794830 26.66802025 -451.55700684 0 0 0 0
-54.88079834 33.62612152 -188.35119629 0 0 0 0
-94.80803680 86.64275360 -361.26849365 0 0 0 0
-95.15149689 85.67591858 -362.65109253 0 0 0 0
-46.28091812 32.18371964 -200.36079407 0 0 0 0
-45.38354874 31.25480080 -199.81379700 0 0 0 0
-82.55608368 -10.86340046 -481.80511475 0 0 0 0
-82.16522980 -11.83829021 -481.57379150 0 0 0 0
-82.40463257 -11.29047012 -480.29260254 0 0 0 0
-120.63919830 63.30736923 -357.75460815 0 0 0 0
-121.21269989 64.05142212 -356.48611450 0 0 0 0
-121.33190155 64.56649017 -357.80358887 0 0 0 0
-120.51490021 69.89148712 -407.06478882 0 0 0 0
-40.82104111 20.42712975 -234.91020203 0 0 0 0
-40.54885101 22.08429909 -235.13929749 0 0 0 0
-65.67542267 4.34838390 -166.25030518 0 0 0 0
-14.43562984 29.68452072 17.42260933 0 0 0 0
-14.03273010 29.75020027 18.60079002 0 0 0 0
-14.80119038 29.08354950 18.03268051 0 0 0 0
-49.08168030 3.50611711 -141.43710327 0 0 0 0
-48.40055084 3.91986108 -139.97290039 0 0 0 0
-121.51059723 55.44453049 -428.86209106 0 0 0 0
-88.18714905 41.31179047 -432.39068604 0 0 0 0
-37.71873093 -8.07586861 -37.49583054 0 0 0 0
-114.43419647 85.70709229 -336.02999878 0 0 0 0
-61.50307083 -2.61438608 -85.99302673 0 0 0 0
-60.85300064 -3.16504908 -87.05769348 0 0 0 0
-61.56829834 -2.29781199 -87.84084320 0 0 0 0
-78.32164001 63.58906937 -406.39929199 0 0 0 0
-78.74093628 62.89667892 -404.98291016 0 0 0 0
-22.78801918 14.30432987 -6.24175119 0 0 0 0
-23.26626968 15.12596035 -4.43169880 0 0 0 0
-23.40415955 15.64317989 -5.87373590 0 0 0 0
-115.42350006 45.84914017 -449.12570190 0 0 0 0
-91.62049103 82.78521729 -379.13940430 0 0 0 0
-92.20406342 81.38394165 -379.98580933 0 0 0 0
-92.70565796 81.75417328 -378.26870728 0 0 0 0
-77.47763824 52.71350098 -298.94869995 0 0 0 0
-76.94275665 53.60559082 -297.67279053 0 0 0 0
-76.69473267 52.25617981 -297.83441162 0 0 0 0
-66.36965942 38.71443176 -244.16180420 0 0 0 0
-67.76966095 38.26427841 -244.91799927 0 0 0 0
-67.24498749 37.69728088 -242.95590210 0 0 0 0
-58.69414902 -4.77570915 -70.50273895 0 0 0 0
-59.07646942 -4.29578686 -71.67799377 0 0 0 0
-59.55868912 -3.90734196 -70.68285370 0 0 0 0
-112.09120178 37.12121964 -420.46890259 0 0 0 0
-113.51570129 37.85132980 -420.93640137 0 0 0 0
-100.76760101 33.18030167 -424.98049927 0 0 0 0
-100.83080292 32.71939850 -423.61221313 0 0 0 0
-100.75800323 32.27407074 -424.74029541 0 0 0 0
-93.85645294 61.63634109 -377.52328491 0 0 0 0
-94.90656281 61.42208099 -376.49551392 0 0 0 0
-95.54403687 60.98640060 -378.14279175 0 0 0 0
-58.74882889 31.51291084 -276.70010376 0 0 0 0
-59.49367905 32.46837997 -277.37579346 0 0 0 0
-51.40816116 4.02988386 -55.42221069 0 0 0 0
-50.71210861 3.10358691 -54.15295029 0 0 0 0
-121.23079681 79.80238342 -343.03808594 0 0 0 0
-121.28759766 80.35018921 -344.23208618 0 0 0 0
-121.69360352 78.95966339 -343.93270874 0 0 0 0
-70.89394379 -2.31365991 -115.12719727 0 0 0 0
-71.69174957 -1.09962296 -116.21759796 0 0 0 0
-70.41443634 -2.29336810 -116.88680267 0 0 0 0
-60.87041092 17.54055977 -212.38450623 0 0 0 0
-92.93422699 56.80760956 -273.99771118 0 0 0 0
-92.67385101 55.66112900 -272.71200562 0 0 0 0
-51.25455856 5.00263405 -160.29010010 0 0 0 0
-50.57653046 5.38880014 -160.96099854 0 0 0 0
-49.94364929 5.68562412 -159.68890381 0 0 0 0
-33.36732864 -9.34393501 -43.69853973 0 0 0 0
-34.08823013 -9.88051414 -43.98826981 0 0 0 0
-71.17324829 13.68990040 -148.31179810 0 0 0 0
-70.99237061 15.33430958 -148.81410217 0 0 0 0
-71.11907959 14.26377010 -149.68569946 0 0 0 0
-120.59739685 71.87579346 -410.51440430 0 0 0 0
-52.24472046 -4.15741301 -32.46974945 0 0 0 0
-51.89707947 -4.40933704 -31.88270950 0 0 0 0
-52.02185059 -3.68405104 -31.61372948 0 0 0 0
-52.37874985 -3.87185407 -33.39048004 0 0 0 0
-52.33739090 -4.59205723 -33.14282990 0 0 0 0
-104.91629791 10.13945961 -447.74630737 0 0 0 0
-106.08170319 11.11754036 -447.57348633 0 0 0 0
-101.31549835 43.77513123 -458.37188721 0 0 0 0
-68.02971649 -15.47315979 -425.24789429 0 0 0 0
-31.75420952 -19.06311989 -33.51475906 0 0 0 0
-31.28582954 -19.80982971 -33.65065002 0 0 0 0
-89.65162659 71.50804901 -410.48818970 0 0 0 0
-88.14440155 72.46071625 -410.27951050 0 0 0 0
-34.15850067 9.98487186 -466.83590698 0 0 0 0
-33.77634811 9.50467587 -468.19110107 0 0 0 0
-34.79557037 8.35319519 -467.11718750 0 0 0 0
-89.17733765 66.09715271 -363.44869995 0 0 0 0
-100.94339752 53.06842041 -318.43069458 0 0 0 0
-100.72760010 71.57942963 -376.47879028 0 0 0 0
-101.47750092 1.27347398 -440.19949341 0 0 0 0
-57.15164948 14.76704979 -170.11450195 0 0 0 0
-56.99839020 13.89935970 -168.69650269 0 0 0 0
-78.81858826 36.82392120 -255.62040710 0 0 0 0
-79.09484100 36.49082947 -254.81869507 0 0 0 0
-78.62799072 35.62654877 -255.27229309 0 0 0 0
-108.40049744 63.99671936 -291.02420044 0 0 0 0
-92.62181854 82.17685699 -382.61120605 0 0 0 0
-93.95855713 80.94817352 -381.78439331 0 0 0 0
-106.85209656 93.33894348 -357.52890015 0 0 0 0
-41.43923187 17.13357925 -228.00619507 0 0 0 0
-105.32240295 82.31173706 -432.32980347 0 0 0 0
-105.67250061 82.98641205 -431.05899048 0 0 0 0
-104.28869629 83.11518860 -431.54458618 0 0 0 0
-68.39547729 -2.68197799 -120.73040009 0 0 0 0
-60.05144882 6.73772097 -231.70689392 0 0 0 0
-73.63639832 19.50507927 -177.31840515 0 0 0 0
-73.38406372 20.08963013 -179.01300049 0 0 0 0
-73.44093323 18.41749954 -178.63459778 0 0 0 0
-85.35156250 15.49606991 -415.70660400 0 0 0 0
-83.42669678 15.53369045 -415.14709473 0 0 0 0
-84.63565063 17.31949043 -415.50381470 0 0 0 0
-73.38588715 16.00922966 -191.51229858 0 0 0 0
-73.45216370 17.16848946 -192.92149353 0 0 0 0
-73.14112854 15.63673019 -193.20129395 0 0 0 0
-60.04111099 1.30910599 -38.97647095 0 0 0 0
-60.88809967 0.82637233 -39.99745941 0 0 0 0
-60.99811935 0.74411112 -38.79483032 0 0 0 0
-58.35977173 34.16992188 -254.37519836 0 0 0 0
-59.24322891 33.09619141 -253.34640503 0 0 0 0
-54.96461868 5.96028185 -135.36909485 0 0 0 0
-97.01825714 67.49581146 -391.51321411 0 0 0 0
-98.18470764 65.97563934 -391.95541382 0 0 0 0
-119.49720001 61.41452026 -325.80700684 0 0 0 0
-120.06140137 62.96580887 -324.77239990 0 0 0 0
-120.14479828 63.07313156 -326.30081177 0 0 0 0
-119.64540100 61.88920975 -323.60919189 0 0 0 0
-59.69221878 16.24444962 -155.78930664 0 0 0 0
-58.83950043 15.12592030 -156.17160034 0 0 0 0
-58.98862076 15.75496960 -154.73910522 0 0 0 0
-60.67097092 -15.98381042 -426.88769531 0 0 0 0
-45.24303055 31.44758034 -252.04330444 0 0 0 0
-89.76740265 40.57043076 -290.62579346 0 0 0 0
-88.75647736 40.49034882 -288.81149292 0 0 0 0
-89.65204620 41.89085007 -289.01321411 0 0 0 0
-86.84246826 69.74288177 -443.26031494 0 0 0 0
-86.47147369 68.38347626 -443.65649414 0 0 0 0
-52.62744904 36.99483109 -207.91740417 0 0 0 0
-51.31187057 36.72467041 -208.88209534 0 0 0 0
-97.43459320 90.20078278 -346.95159912 0 0 0 0
-58.25320053 34.48920059 -190.34609985 0 0 0 0
-58.17847824 34.09794998 -188.60090637 0 0 0 0
-67.49101257 22.72023964 -148.40299988 0 0 0 0
-67.53607941 22.95195007 -149.15069580 0 0 0 0
-67.28594971 22.25834084 -148.84039307 0 0 0 0
-109.66159821 55.56550980 -399.06860352 0 0 0 0
-85.19609833 33.08245087 -439.21121216 0 0 0 0
-86.12364197 32.27611160 -438.05050659 0 0 0 0
-67.07463837 21.31907082 -128.14540100 0 0 0 0
-65.95905304 22.19463921 -127.72000122 0 0 0 0
-71.84854889 24.92540932 -250.40919495 0 0 0 0
-71.12980652 24.38048935 -250.04710388 0 0 0 0
-58.95180130 18.74039078 -110.44609833 0 0 0 0
-59.40983963 19.14882088 -112.30319977 0 0 0 0
-107.97429657 93.72144318 -393.49380493 0 0 0 0
-108.94529724 93.18936157 -395.10839844 0 0 0 0
-109.44010162 93.11004639 -393.55740356 0 0 0 0
-120.36519623 60.41363907 -434.10571289 0 0 0 0
-120.30770111 61.52405930 -433.68591309 0 0 0 0
-96.85427856 10.14988995 -416.84600830 0 0 0 0
-31.08765984 9.32260704 -455.54370117 0 0 0 0
-31.33032036 8.45788765 -454.55358887 0 0 0 0
-29.86429024 8.45768642 -455.03628540 0 0 0 0
-101.30030060 58.70423889 -451.50338745 0 0 0 0
-100.82569885 59.94227982 -450.97808838 0 0 0 0
-99.56526184 59.07321930 -451.40728760 0 0 0 0
-56.37168884 20.11957932 -22.57283020 0 0 0 0
-55.77560043 19.69311905 -21.17168045 0 0 0 0
-54.48077011 19.39003944 -22.35658073 0 0 0 0
-120.29309845 74.68707275 -393.19821167 0 0 0 0
-120.34980011 73.29286957 -394.20050049 0 0 0 0
-77.05464935 45.25352859 -297.75970459 0 0 0 0
-106.21130371 81.75707245 -311.27349854 0 0 0 0
-107.97570038 81.69992828 -312.20150757 0 0 0 0
-108.19309998 80.80095673 -310.53988647 0 0 0 0
-55.84154892 8.72368908 -71.76571655 0 0 0 0
-54.87841034 7.41936016 -72.39055634 0 0 0 0
-55.65822983 8.36398792 -73.04768372 0 0 0 0
-58.36830902 24.57629013 -274.75228882 0 0 0 0
-58.24501038 23.09565926 -273.77978516 0 0 0 0
-69.39330292 18.86952972 -148.57060242 0 0 0 0
-69.73397064 18.56945038 -148.90609741 0 0 0 0
-69.88005066 18.37793922 -148.24710083 0 0 0 0
-101.34960175 61.67530060 -387.06118774 0 0 0 0
-101.45909882 60.87226868 -388.43130493 0 0 0 0
-101.36260223 62.23553848 -388.59368896 0 0 0 0
-56.63500977 -5.74290085 -66.76879120 0 0 0 0
-48.20692825 -3.63185000 -58.38111115 0 0 0 0
-48.75563812 -4.76814985 -59.66096115 0 0 0 0
-70.26895905 -38.59476089 -152.73120117 0 0 0 0
-70.48372650 -38.53517151 -153.68649292 0 0 0 0
-69.62645721 -38.33198166 -153.32429504 0 0 0 0
-101.33080292 50.91141891 -318.31979370 0 0 0 0
-101.17990112 50.30038071 -318.19409180 0 0 0 0
-101.29850006 50.75910187 -317.62701416 0 0 0 0
-101.24539948 51.42612076 -318.00039673 0 0 0 0
-101.46450043 51.37443924 -318.81179810 0 0 0 0
-95.45741272 75.31786346 -321.94580078 0 0 0 0
-95.27974701 74.96932220 -320.18548584 0 0 0 0
-96.22345734 73.98560333 -321.18710327 0 0 0 0
-66.62666321 3.48823309 -89.15573883 0 0 0 0
-65.08129120 2.95261502 -89.99484253 0 0 0 0
-64.79411316 2.41789007 -88.30180359 0 0 0 0
-62.02038956 3.86124206 -418.68090820 0 0 0 0
-63.18891144 4.63749886 -419.97750854 0 0 0 0
-56.92906189 8.50216961 -248.76629639 0 0 0 0
-58.50725937 8.77603054 -250.21189880 0 0 0 0
-62.54272079 13.44896984 -82.74770355 0 0 0 0
-99.32779694 51.33179092 -274.59109497 0 0 0 0
-119.91459656 76.76728058 -378.23318481 0 0 0 0
-120.08519745 75.70233917 -377.01431274 0 0 0 0
-96.15692902 73.59131622 -319.64419556 0 0 0 0
-96.79915619 72.73435974 -320.70831299 0 0 0 0
-41.41255951 23.62260056 -244.08050537 0 0 0 0
-41.65290833 21.83979034 -244.50529480 0 0 0 0
-101.72170258 85.09314728 -320.71340942 0 0 0 0
-99.84983826 84.63247681 -320.49209595 0 0 0 0
-100.59570312 85.23908997 -321.99169922 0 0 0 0
-59.67716980 3.50139189 -168.42309570 0 0 0 0
-121.39830017 60.08415985 -427.98318481 0 0 0 0
-121.33760071 59.51834106 -429.78259277 0 0 0 0
-121.51519775 58.54320908 -428.22460938 0 0 0 0
-47.92655945 6.63944387 -25.66238022 0 0 0 0
-48.73617935 5.90767717 -24.14776039 0 0 0 0
-48.32299042 5.12981701 -26.10463905 0 0 0 0
-112.06960297 53.95310974 -325.03100586 0 0 0 0
-59.42007828 -3.74346590 -399.86239624 0 0 0 0
-119.57849884 77.02274323 -414.64001465 0 0 0 0
-48.72581100 0.84498268 -33.00944138 0 0 0 0
-96.05090332 75.10874939 -336.90939331 0 0 0 0
-88.26429749 37.51271057 -417.61788940 0 0 0 0
-86.82209778 38.34218979 -418.06228638 0 0 0 0
-73.30876160 -24.00581932 -406.35339355 0 0 0 0
-72.07408142 -23.64271927 -407.26748657 0 0 0 0
-73.93856812 -23.38084030 -407.45040894 0 0 0 0
-7.04667091 17.11944008 15.28489971 0 0 0 0
-8.02447033 18.34009933 14.24285984 0 0 0 0
-68.60243988 19.62467957 -154.66549683 0 0 0 0
-113.67990112 79.25569916 -428.41149902 0 0 0 0
-77.18846893 -11.56534958 -429.02059937 0 0 0 0
-78.52028656 -11.10639000 -429.42098999 0 0 0 0
-77.70677185 -11.66522980 -430.79168701 0 0 0 0
-53.44715881 13.57935047 -14.64280033 0 0 0 0
-52.99544144 13.31515026 -15.18986034 0 0 0 0
-52.96582031 12.86888027 -14.60000038 0 0 0 0
-56.99560165 15.61244011 -178.44270325 0 0 0 0
-96.02464294 83.86879730 -352.15921021 0 0 0 0
-97.01143646 82.52332306 -352.89300537 0 0 0 0
-96.38166809 83.77783966 -353.77059937 0 0 0 0
-98.53967285 49.03987885 -304.78210449 0 0 0 0
-89.13384247 54.27267075 -286.54998779 0 0 0 0
-88.17125702 55.61125946 -285.74911499 0 0 0 0
-56.12014008 22.53268051 -194.42860413 0 0 0 0
-55.74399948 21.96762085 -195.61430359 0 0 0 0
-79.94277954 27.03846931 -425.30139160 0 0 0 0
-84.77736664 62.34746933 -444.43090820 0 0 0 0
-118.66809845 34.01100922 -441.29010010 0 0 0 0
8.75294113 -12.11215019 26.81286049 0 0 0 0
8.98889828 -11.28627014 26.90242958 0 0 0 0
9.62012005 -11.90388012 27.39805984 0 0 0 0
-91.20410156 73.54696655 -404.45150757 0 0 0 0
-92.58277893 72.21128082 -404.03909302 0 0 0 0
-29.26963043 8.74410820 -164.32249451 0 0 0 0
-28.30945969 9.38169670 -163.96000671 0 0 0 0
-90.41121674 2.51055694 -432.17239380 0 0 0 0
-116.27899933 64.94909668 -374.94448853 0 0 0 0
-115.25440216 63.80842972 -374.56399536 0 0 0 0
-116.37779999 64.49838257 -373.29211426 0 0 0 0
-52.88788986 34.22179031 -247.71890259 0 0 0 0
-122.07420349 78.26683044 -367.21420288 0 0 0 0
-121.83630371 77.25788879 -368.73410034 0 0 0 0
-87.37152100 46.55905914 -427.86581421 0 0 0 0
-87.36450195 44.57749176 -427.78131104 0 0 0 0
-110.95320129 13.52822018 -429.08621216 0 0 0 0
-110.99890137 12.88675022 -430.22448730 0 0 0 0
-110.12850189 12.02931976 -429.03619385 0 0 0 0
-65.07617188 -23.25177002 -404.42248535 0 0 0 0
-63.05197144 -5.25122690 -56.66289139 0 0 0 0
-62.31208038 -4.62806177 -55.62895966 0 0 0 0
-61.46163940 -5.76533699 -56.13618088 0 0 0 0
-93.21379089 -5.32820988 67.07597351 0 0 0 0
-93.08764648 -6.42301607 66.63852692 0 0 0 0
-92.87258148 -5.48235893 66.25270844 0 0 0 0
-84.92958832 85.95604706 -397.13281250 0 0 0 0
12.09086037 -11.26461029 33.89870071 0 0 0 0
11.52402973 -10.38354969 33.57518005 0 0 0 0
11.23841953 -10.48480034 34.59991074 0 0 0 0
-99.20094299 6.40770817 48.67377853 0 0 0 0
-99.05252838 6.47305107 47.12625885 0 0 0 0
-98.96006775 4.83737993 49.26025009 0 0 0 0
-41.52985001 27.60868073 -241.98620605 0 0 0 0
-44.38898087 -6.21143913 -50.02919006 0 0 0 0
3.57224989 2.42496991 24.70914078 0 0 0 0
2.95850611 2.44094992 23.39096069 0 0 0 0
2.92280602 3.37072897 24.10750961 0 0 0 0
-83.35579681 78.65557861 -385.24191284 0 0 0 0
-83.40677643 78.61926270 -383.45150757 0 0 0 0
-82.94426727 77.79913330 -384.36190796 0 0 0 0
-119.07520294 74.45446014 -323.16229248 0 0 0 0
-62.76234818 23.13011932 -246.10429382 0 0 0 0
-63.66212082 23.08805084 -247.29780579 0 0 0 0
-64.07240295 22.16600990 -246.31230164 0 0 0 0
-54.49658966 14.09506035 -30.71083069 0 0 0 0
-54.86972046 12.44001961 -31.22916985 0 0 0 0
-55.57699966 13.89509010 -30.24024010 0 0 0 0
-117.44909668 69.80207825 -308.92858887 0 0 0 0
-62.83520889 11.04687023 -200.51840210 0 0 0 0
-61.45122147 12.44933033 -200.90609741 0 0 0 0
-82.85357666 50.99345016 -436.73471069 0 0 0 0
-72.75119019 23.38837051 -249.74049377 0 0 0 0
-73.45497894 24.30323029 -251.02430725 0 0 0 0
-58.72483063 39.42187881 -239.00340271 0 0 0 0
-57.33382034 39.20711899 -238.59330750 0 0 0 0
-61.24713898 32.28442001 -15.37351036 0 0 0 0
-61.07997894 32.37527084 -16.69379044 0 0 0 0
-60.29748154 20.44079971 -172.56390381 0 0 0 0
-60.00292969 19.53100014 -171.41009521 0 0 0 0
-120.19309998 64.88742828 -411.31719971 0 0 0 0
-71.98674011 6.18923092 -203.51730347 0 0 0 0
-71.46711731 6.10776997 -203.13549805 0 0 0 0
-71.56806183 7.36593914 -203.48980713 0 0 0 0
-29.85190964 -4.73780394 -39.19625092 0 0 0 0
-29.47336006 -4.36816788 -38.26836014 0 0 0 0
-28.63639069 -4.22253990 -39.13800812 0 0 0 0
-41.76493073 29.62293053 -237.53770447 0 0 0 0
-66.05850983 -13.38206005 -61.11188889 0 0 0 0
-79.27327728 -6.07041502 -404.09790039 0 0 0 0
-79.87841797 -7.22327709 -403.19711304 0 0 0 0
-71.76542664 44.81637955 -258.64401245 0 0 0 0
-72.59127045 43.69234085 -257.56570435 0 0 0 0
-70.86395264 44.23236084 -257.30029297 0 0 0 0
-104.67929840 49.62277985 -317.30911255 0 0 0 0
-104.99680328 49.10152817 -316.70959473 0 0 0 0
-105.22250366 49.38122177 -317.23928833 0 0 0 0
-46.10879135 3.77657104 -19.06059074 0 0 0 0
-45.69179916 3.04451609 -19.98019028 0 0 0 0
-44.77920914 4.02864504 -19.49412918 0 0 0 0
-84.45500946 66.19228363 -422.81350708 0 0 0 0
-80.08651733 13.42891026 -459.59671021 0 0 0 0
-49.96218872 13.97677994 -253.49510193 0 0 0 0
-50.22219849 12.93309975 -252.32580566 0 0 0 0
-51.21464157 13.07759953 -253.63380432 0 0 0 0
-111.89700317 27.05471992 -423.73748779 0 0 0 0
-58.43040848 30.50078964 -200.48829651 0 0 0 0
-59.24264908 31.76137924 -201.14140320 0 0 0 0
-69.62261963 22.37043953 -231.89739990 0 0 0 0
-70.02433014 22.89784050 -232.93910217 0 0 0 0
-69.25364685 21.79612923 -232.81039429 0 0 0 0
-22.75819969 15.27690029 -11.52118015 0 0 0 0
-23.07099915 16.48715973 -11.32532978 0 0 0 0
-22.55401039 15.93220043 -12.82713985 0 0 0 0
-63.48054886 -12.87944984 -175.49349976 0 0 0 0
-63.26361084 -13.78931999 -175.92720032 0 0 0 0
-63.19868088 -12.72638988 -176.43469238 0 0 0 0
-87.01524353 42.09643936 -282.95199585 0 0 0 0
-87.81263733 42.44124985 -284.61770630 0 0 0 0
-95.82599640 26.18358994 -163.76429749 0 0 0 0
-96.63101196 25.78240967 -163.86689758 0 0 0 0
-95.65441895 25.71433067 -164.46620178 0 0 0 0
-109.37629700 8.93056202 -438.73651123 0 0 0 0
-106.59279633 42.93856812 -291.11669922 0 0 0 0
-106.39830017 42.89608002 -289.74569702 0 0 0 0
-107.26239777 44.12776184 -290.40539551 0 0 0 0
-57.62731934 39.39443970 -240.10319519 0 0 0 0
-92.03050995 31.38055992 -419.81469727 0 0 0 0
-90.52767944 30.72120094 -420.15780640 0 0 0 0
-90.87187958 32.52326965 -419.53869629 0 0 0 0
-110.01499939 68.62006378 -296.65319824 0 0 0 0
-110.61100006 69.32054138 -298.05331421 0 0 0 0
-72.37686920 31.00635910 -241.88800049 0 0 0 0
-72.47984314 29.54023933 -241.79589844 0 0 0 0
-72.17057800 30.34585953 -240.88049316 0 0 0 0
-45.57270050 16.32159996 -153.08380127 0 0 0 0
-45.58084869 15.48857021 -154.54499817 0 0 0 0
-45.73971939 17.25828934 -154.75399780 0 0 0 0
-43.99906158 13.12232971 -220.32870483 0 0 0 0
-42.99473953 14.28452969 -221.53120422 0 0 0 0
-42.81076813 14.65752983 -219.95759583 0 0 0 0
-79.84068298 65.28894806 -423.96209717 0 0 0 0
-79.99269104 64.56157684 -425.16241455 0 0 0 0
-78.90518188 65.00662231 -424.77178955 0 0 0 0
-101.09860229 62.43661118 -381.89920044 0 0 0 0
-101.01409912 62.70890045 -379.89739990 0 0 0 0
-36.24237823 5.38528776 -450.44628906 0 0 0 0
-35.49468994 4.56386423 -449.65750122 0 0 0 0
-34.82649994 5.56056499 -450.77639771 0 0 0 0
-57.11024094 16.61824989 -266.59429932 0 0 0 0
-58.43960953 15.45522022 -266.30969238 0 0 0 0
-85.19745636 26.12433052 -4.29877710 0 0 0 0
-84.93717957 27.37721062 -5.06976223 0 0 0 0
-85.13471985 26.48060989 -5.86546803 0 0 0 0
-77.47692871 -20.88186073 -409.46649170 0 0 0 0
-78.73084259 -19.57040024 -409.50070190 0 0 0 0
-77.64729309 -20.06738091 -410.65411377 0 0 0 0
-94.99066925 23.96718025 -456.91040039 0 0 0 0
-93.45572662 24.80441093 -457.06781006 0 0 0 0
-93.27275085 23.14464951 -456.60040283 0 0 0 0
-80.63825989 5.37888002 -449.78408813 0 0 0 0
-48.68878937 -2.03851891 -58.26314926 0 0 0 0
-47.95787048 -2.61356997 -56.94578171 0 0 0 0
-49.10165024 -3.00625801 -59.71242905 0 0 0 0
-49.42823029 -1.26016605 -59.57738876 0 0 0 0
-91.45385742 63.83631897 -410.91949463 0 0 0 0
-91.84494019 62.71878052 -410.42871094 0 0 0 0
-92.16613770 63.73283005 -409.50369263 0 0 0 0
-61.39371109 33.41825104 -206.01510620 0 0 0 0
-61.25368881 33.98078918 -207.82969666 0 0 0 0
-69.58191681 18.40003014 -276.17480469 0 0 0 0
-70.03211975 19.48526001 -277.60040283 0 0 0 0
-68.27957916 19.53561974 -277.33810425 0 0 0 0
-61.94107056 -15.11260986 -49.82139969 0 0 0 0
-63.39878082 -14.02851963 -50.33205032 0 0 0 0
-62.25255966 -15.12322998 -51.71463013 0 0 0 0
-26.33252907 31.04314041 16.63787079 0 0 0 0
-26.80390930 31.30664062 15.85597038 0 0 0 0
-27.05051994 30.61000061 15.96506977 0 0 0 0
-99.12480927 60.33156967 -319.08999634 0 0 0 0
-98.74121857 59.97610092 -317.60339355 0 0 0 0
-108.83799744 83.23619843 -317.71609497 0 0 0 0
-109.90149689 82.78797150 -317.87930298 0 0 0 0
-109.52290344 82.48512268 -316.31259155 0 0 0 0
-52.51296997 7.71711302 -241.04069519 0 0 0 0
-60.37477112 -5.32254505 -392.79949951 0 0 0 0
-59.26219940 -6.12500477 -394.09271240 0 0 0 0
-60.39673996 -4.72233200 -394.44589233 0 0 0 0
-39.73131943 23.56262016 -224.49040222 0 0 0 0
-71.72750854 -13.30154037 -428.68701172 0 0 0 0
-63.59589005 -1.84996605 -205.99630737 0 0 0 0
-63.96749115 -0.77545983 -206.92930603 0 0 0 0
-63.77544022 -0.69706380 -205.80619812 0 0 0 0
-56.73505020 21.84855080 -189.87120056 0 0 0 0
-56.12702179 20.71252060 -191.15440369 0 0 0 0
-114.11139679 53.09265137 -315.26519775 0 0 0 0
-115.62960052 54.87147903 -315.27011108 0 0 0 0
-114.59929657 53.93838120 -316.92559814 0 0 0 0
-30.93466949 -15.43328953 -35.78833008 0 0 0 0
-29.86894989 -15.16162014 -36.17234039 0 0 0 0
-62.37015915 -6.58846807 -58.21532822 0 0 0 0
-61.96710968 -7.04579687 -59.33654022 0 0 0 0
-66.31522369 -10.36297989 -209.34979248 0 0 0 0
-66.64974976 -11.22385979 -208.95809937 0 0 0 0
-67.34043121 -10.41547012 -209.40289307 0 0 0 0
-51.67477036 33.82004166 -242.02510071 0 0 0 0
-70.15895081 13.66627979 -83.94474030 0 0 0 0
-59.07722092 6.43027115 -206.63659668 0 0 0 0
-60.24596024 6.56172323 -207.57919312 0 0 0 0
-94.36525726 29.90842056 -283.56008911 0 0 0 0
-62.61124039 1.77499902 -102.40650177 0 0 0 0
-83.40989685 54.95589828 -280.02609253 0 0 0 0
-71.37229919 14.13346004 -111.97190094 0 0 0 0
-119.25229645 84.43814850 -344.99130249 0 0 0 0
-117.95040131 85.52942657 -343.96978760 0 0 0 0
-118.33910370 85.88762665 -345.84790039 0 0 0 0
-109.37809753 90.25000763 -412.24530029 0 0 0 0
-108.37110138 90.41047668 -413.24798584 0 0 0 0
-109.51799774 89.67693329 -413.84429932 0 0 0 0
-74.21526337 -9.27764320 -470.59051514 0 0 0 0
-74.24285889 -9.17379189 -469.49911499 0 0 0 0
-74.40515900 -10.07691956 -470.15069580 0 0 0 0
-74.25792694 -9.83195782 -471.39608765 0 0 0 0
-74.15057373 -8.81985283 -471.46551514 0 0 0 0
-99.33985901 75.30632019 -348.72619629 0 0 0 0
-98.55184174 74.24002838 -338.66250610 0 0 0 0
-98.08931732 75.74986267 -338.81781006 0 0 0 0
-102.45729828 14.89113045 -452.08480835 0 0 0 0
-101.02130127 13.64653969 -452.23498535 0 0 0 0
-102.54139709 13.32233047 -451.32391357 0 0 0 0
-103.61509705 7.76144981 -446.86111450 0 0 0 0
-102.66680145 7.97070122 -448.11898804 0 0 0 0
-102.43560028 6.66269112 -447.22369385 0 0 0 0
-56.51060867 6.36397886 -34.32260132 0 0 0 0
-55.51203918 8.01980400 -33.80976868 0 0 0 0
-84.05975342 44.92276001 -436.68099976 0 0 0 0
-47.14078903 35.23720169 -211.46479797 0 0 0 0
-82.92810822 42.24301910 -257.80511475 0 0 0 0
-83.32112122 43.89606857 -259.03878784 0 0 0 0
-84.28041840 42.26839066 -258.44610596 0 0 0 0
-48.53794861 16.17658043 -254.42140198 0 0 0 0
-47.38674164 17.23617935 -254.04370117 0 0 0 0
-113.84660339 50.46485901 -413.72720337 0 0 0 0
-80.85310364 66.31603241 -419.18289185 0 0 0 0
-80.44065857 66.90014648 -417.93701172 0 0 0 0
-79.61006165 66.14826965 -418.67388916 0 0 0 0
-22.73465919 -0.18806081 -24.78097916 0 0 0 0
-100.81109619 84.58425140 -319.42068481 0 0 0 0
-120.20249939 51.60549164 -422.51721191 0 0 0 0
-119.96440125 50.49932098 -422.48568726 0 0 0 0
-90.50525665 40.47809982 -428.20678711 0 0 0 0
-59.68334961 -20.74724007 -402.53259277 0 0 0 0
-64.74299622 16.60244942 -13.52661991 0 0 0 0
-65.71394348 16.60493088 -13.19550991 0 0 0 0
-65.40975189 15.92498016 -13.97012043 0 0 0 0
-64.38063812 17.20586967 -13.40711975 0 0 0 0
-65.43842316 17.42177963 -12.88397026 0 0 0 0
-80.43998718 24.54261971 -443.05551147 0 0 0 0
-79.48065948 24.77136993 -443.25381470 0 0 0 0
-32.44799042 -17.89785004 -50.96134949 0 0 0 0
-32.42544937 -16.04780006 -51.09632111 0 0 0 0
-30.78519058 -17.17927933 -50.38843155 0 0 0 0
-98.60336304 75.13211823 -378.07888794 0 0 0 0
-98.65416718 74.34261322 -379.36099243 0 0 0 0
-7.37313700 -2.60994697 26.79833984 0 0 0 0
-83.31137848 22.16258049 -257.70379639 0 0 0 0
-82.56886292 20.93662071 -257.65670776 0 0 0 0
-82.90350342 22.52209091 -256.53839111 0 0 0 0
-55.82244110 26.94869041 -145.61329651 0 0 0 0
-55.87680054 17.96183968 -266.85839844 0 0 0 0
-119.44869995 73.92244720 -381.83679199 0 0 0 0
-84.53639984 59.40710068 -285.62850952 0 0 0 0
-83.64147186 59.07833862 -284.33850098 0 0 0 0
-83.15619659 59.78882980 -285.24710083 0 0 0 0
-96.58570862 81.22355652 -346.67489624 0 0 0 0
-96.05402374 82.30187225 -347.76339722 0 0 0 0
-95.51714325 82.57466125 -346.44110107 0 0 0 0
-65.08184052 43.26448822 -281.75939941 0 0 0 0
-65.73016357 44.57632828 -282.68881226 0 0 0 0
-65.29193115 44.52906036 -281.23910522 0 0 0 0
-96.45722198 7.03533316 19.23193932 0 0 0 0
-96.94116211 7.11576700 20.61730957 0 0 0 0
-95.58957672 6.86448717 19.84707069 0 0 0 0
-65.35546875 -21.26158905 -167.61920166 0 0 0 0
-66.04052734 -20.49533081 -167.60249329 0 0 0 0
-66.15962982 -21.42243958 -166.58020020 0 0 0 0
-76.91474915 33.55395126 -8.63703537 0 0 0 0
-100.84320068 1.78491700 -2.29466891 0 0 0 0
-100.29039764 0.42184359 -2.13722897 0 0 0 0
-101.32450104 0.51056248 -0.79737920 0 0 0 0
-99.80429840 65.81587219 -330.68148804 0 0 0 0
-99.90544128 64.93901825 -329.07998657 0 0 0 0
-80.86673737 17.34663010 -263.00601196 0 0 0 0
-109.28759766 91.25849152 -408.21630859 0 0 0 0
-105.54640198 58.78805161 -343.25579834 0 0 0 0
-46.74621964 -10.21014023 -43.53036880 0 0 0 0
-45.79177094 -10.02917957 -42.97504044 0 0 0 0
-45.86933136 -9.98830509 -43.90816116 0 0 0 0
-54.07582092 32.99813080 -220.97549438 0 0 0 0
-40.07654190 22.16570091 -215.76370239 0 0 0 0
-40.32641983 21.14533997 -215.32989502 0 0 0 0
-68.99122620 5.62377214 -144.07800293 0 0 0 0
-67.74288940 4.28503609 -144.27310181 0 0 0 0
-68.29183197 4.62051296 -142.68460083 0 0 0 0
-66.82274628 14.35194016 -218.25529480 0 0 0 0
-67.57354736 15.09471989 -218.53410339 0 0 0 0
-67.91976929 14.44097996 -218.05709839 0 0 0 0
-65.63485718 13.90262032 -218.03610229 0 0 0 0
-65.89183044 14.59350967 -218.73829651 0 0 0 0
-50.78913116 6.95766783 -175.78649902 0 0 0 0
-49.97790909 6.37249088 -175.45339966 0 0 0 0
-51.10741043 6.10761976 -175.60820007 0 0 0 0
-50.46149826 6.36271715 -102.11370087 0 0 0 0
-50.29135132 5.16519880 -102.72689819 0 0 0 0
-50.04121017 6.03275681 -103.74250031 0 0 0 0
-107.00009918 93.90529633 -394.92660522 0 0 0 0
-46.39516830 27.76543045 -256.98690796 0 0 0 0
-89.89492798 2.98241496 46.36552048 0 0 0 0
-88.30313873 63.62155914 -446.68640137 0 0 0 0
-89.34319305 63.08911896 -447.46679688 0 0 0 0
-70.23345184 17.42865944 -214.49339294 0 0 0 0
-112.82779694 51.64564133 -411.36621094 0 0 0 0
-99.59327698 68.41774750 -389.14230347 0 0 0 0
-76.26785278 25.21479034 -171.71650696 0 0 0 0
-75.50102234 24.80335045 -172.38040161 0 0 0 0
-76.34123993 24.24876022 -171.72770691 0 0 0 0
-112.22450256 74.49680328 -437.83099365 0 0 0 0
-110.60810089 75.49720001 -438.41711426 0 0 0 0
-111.47789764 74.00962067 -439.46728516 0 0 0 0
-120.34980011 78.63822174 -336.74798584 0 0 0 0
-61.07405853 28.25779915 -246.25570679 0 0 0 0
-34.59954834 22.14572906 -3.37136793 0 0 0 0
-34.57379150 21.90715981 -1.99378502 0 0 0 0
-34.25662994 23.04932022 -2.55268598 0 0 0 0
-76.81519318 -32.87408829 -142.59620667 0 0 0 0
-75.87436676 -32.56103134 -143.74499512 0 0 0 0
-76.97297668 -33.07347107 -144.16709900 0 0 0 0
-73.03196716 28.43750000 -170.37280273 0 0 0 0
-72.20153046 27.92371941 -171.20880127 0 0 0 0
-73.17227936 27.70553970 -171.47529602 0 0 0 0
-109.55159760 91.66457367 -405.36529541 0 0 0 0
-110.77600098 91.19232178 -404.52090454 0 0 0 0
-97.73269653 43.55321121 -271.61221313 0 0 0 0
-70.78132629 -20.13456917 -414.75000000 0 0 0 0
-69.16828156 -20.00234985 -414.66790771 0 0 0 0
-78.28111267 37.06422043 -433.64828491 0 0 0 0
-105.66780090 33.88351822 -456.99990845 0 0 0 0
-105.16020203 35.20606995 -457.44061279 0 0 0 0
-104.31400299 33.97940826 -457.65289307 0 0 0 0
-96.58886719 75.30362701 -443.01519775 0 0 0 0
-108.10759735 92.50890350 -403.55389404 0 0 0 0
-107.31900024 92.57190704 -404.94711304 0 0 0 0
-108.53440094 92.17299652 -404.72918701 0 0 0 0
-50.26445007 36.48662949 -249.12510681 0 0 0 0
-50.53236008 36.34027863 -248.28230286 0 0 0 0
-49.79293060 36.32703018 -248.43840027 0 0 0 0
-94.10128021 86.17046356 -365.87249756 0 0 0 0
-44.51985931 30.89784050 -250.66419983 0 0 0 0
-43.97686005 29.58589935 -250.82380676 0 0 0 0
-115.51740265 87.62966156 -403.28179932 0 0 0 0
-116.22709656 86.98956299 -402.08480835 0 0 0 0
-115.37840271 87.94954681 -401.85650635 0 0 0 0
-83.86051178 42.16479111 -269.20700073 0 0 0 0
-71.81297302 9.73655605 -127.76110077 0 0 0 0
-71.85246277 10.18439007 -126.50129700 0 0 0 0
-71.58424377 11.27204037 -128.07049561 0 0 0 0
-55.29673004 18.97282028 -199.44760132 0 0 0 0
-55.16051102 20.55290985 -199.04539490 0 0 0 0
-13.64328957 -13.09298992 -40.73423004 0 0 0 0
-13.71825027 -11.65612984 -41.81433868 0 0 0 0
-12.89163971 -11.98676968 -40.26604843 0 0 0 0
-78.64084625 72.60471344 -428.46139526 0 0 0 0
-79.34043121 73.51405334 -429.63821411 0 0 0 0
-120.82430267 61.08988953 -431.72241211 0 0 0 0
-120.79570007 62.21982956 -430.83758545 0 0 0 0
-120.49569702 61.98971939 -432.53219604 0 0 0 0
-61.85902023 -9.59757710 -77.98297119 0 0 0 0
-63.13043976 -10.14418030 -78.46266937 0 0 0 0
-62.31676865 -9.62683868 -79.58817291 0 0 0 0
-86.06091309 38.61928940 -455.90209961 0 0 0 0
-85.68190002 40.59534073 -455.16839600 0 0 0 0
-92.85148621 69.43475342 -446.13140869 0 0 0 0
-93.69509125 68.28359222 -446.88479614 0 0 0 0
-44.71340179 14.79899979 -194.79949951 0 0 0 0
-94.74794006 17.82955933 -421.74789429 0 0 0 0
-94.17323303 16.67108917 -421.13088989 0 0 0 0
-94.99433136 16.67310905 -422.47918701 0 0 0 0
-86.03524017 -6.18245411 -433.86441040 0 0 0 0
-86.09040833 -5.36292124 -433.88079834 0 0 0 0
-87.88559723 51.51300812 -406.60379028 0 0 0 0
-117.95980072 58.90584183 -313.76260376 0 0 0 0
-118.09089661 58.98979950 -314.96960449 0 0 0 0
-98.59133148 93.79821777 -401.52270508 0 0 0 0
-99.64968109 93.73265076 -402.85250854 0 0 0 0
-99.68942261 93.89347839 -401.23379517 0 0 0 0
-97.75610352 62.45188141 -282.33209229 0 0 0 0
-62.25123978 20.81776047 -166.95979309 0 0 0 0
-62.43190002 20.30821991 -165.41090393 0 0 0 0
-68.31746674 3.44550109 -86.41900635 0 0 0 0
-44.30717850 19.10026932 -186.25559998 0 0 0 0
-44.07106018 19.95657921 -187.99600220 0 0 0 0
-23.51390076 24.52137947 10.72684956 0 0 0 0
-83.51956940 -7.59198284 -453.24398804 0 0 0 0
-83.48844910 -7.20415592 -452.26388550 0 0 0 0
-97.33762360 35.12924957 -295.28710938 0 0 0 0
-98.42048645 36.05363083 -295.99920654 0 0 0 0
-95.66000366 -8.77037716 61.39635086 0 0 0 0
-94.61724091 -7.88647079 61.46173096 0 0 0 0
-94.99553680 -8.74885464 62.07854843 0 0 0 0
-101.13339996 65.00827789 -387.77151489 0 0 0 0
-101.28559875 63.41035080 -387.18359375 0 0 0 0
-92.15514374 84.17665863 -429.14440918 0 0 0 0
-83.71705627 13.31715012 -4.91743898 0 0 0 0
-82.04270172 14.05817986 -5.42286587 0 0 0 0
-83.15657043 14.69042015 -4.53203917 0 0 0 0
-110.54139709 31.80915070 -421.54730225 0 0 0 0
-108.93029785 31.80991936 -420.79449463 0 0 0 0
-85.57254791 47.41469955 -412.11221313 0 0 0 0
-86.05438995 46.24637985 -412.65521240 0 0 0 0
-66.54783630 15.12919044 -125.35340118 0 0 0 0
-67.43791962 15.75823975 -126.13230133 0 0 0 0
-66.09818268 15.91870975 -127.00389862 0 0 0 0
-96.24478912 54.45956039 -310.05911255 0 0 0 0
-96.01358795 54.98773956 -308.31860352 0 0 0 0
-72.05001068 1.37045896 -74.92179871 0 0 0 0
-73.34272003 1.71660697 -75.90547943 0 0 0 0
-72.09477234 1.90222001 -76.72823334 0 0 0 0
-103.11599731 51.46070099 -278.82879639 0 0 0 0
-63.86943054 18.18265915 -151.89529419 0 0 0 0
-62.76150894 17.48233986 -150.75549316 0 0 0 0
-62.75450897 17.19099045 -152.41929626 0 0 0 0
-80.78307343 78.61563110 -422.22500610 0 0 0 0
-91.38156891 4.73940182 -429.24398804 0 0 0 0
-91.92414093 5.27168798 -429.39428711 0 0 0 0
-91.65337372 5.45729208 -428.74301147 0 0 0 0
-102.43560028 54.65550995 -404.24020386 0 0 0 0
-102.76760101 53.96709061 -403.82818604 0 0 0 0
-102.69740295 53.93202972 -404.93899536 0 0 0 0
-82.74490356 -9.80019283 -481.57830811 0 0 0 0
-82.69774628 -8.78523827 -481.49240112 0 0 0 0
-82.69641113 -9.32583904 -482.93908691 0 0 0 0
-80.11891174 20.98027992 -444.71051025 0 0 0 0
-80.42427826 21.59737015 -444.20071411 0 0 0 0
-34.98588943 -17.65847015 -39.36130905 0 0 0 0
-96.93914032 80.66706085 -373.34310913 0 0 0 0
-96.33194733 81.46865845 -374.20138550 0 0 0 0
-96.40686035 81.85452271 -372.39550781 0 0 0 0
-103.41269684 2.11730194 -432.60690308 0 0 0 0
-102.41410065 0.89980167 -433.69250488 0 0 0 0
-60.68109894 -2.49316502 -400.07769775 0 0 0 0
-59.59980011 -2.88233399 -401.55969238 0 0 0 0
-69.34921265 3.34181190 -212.06219482 0 0 0 0
-69.51856232 4.38530397 -212.35330200 0 0 0 0
-68.58988953 4.17563105 -212.27940369 0 0 0 0
-53.05921936 24.72896957 -229.21499634 0 0 0 0
-52.66857147 25.89292908 -228.05760193 0 0 0 0
-117.69509888 58.29983902 -325.22601318 0 0 0 0
-78.17263794 31.73097038 -258.91738892 0 0 0 0
-78.45181274 33.04853058 -258.02978516 0 0 0 0
-77.97708130 32.12282944 -256.93179321 0 0 0 0
-54.54127884 -3.36125207 -430.65319824 0 0 0 0
-53.26884842 -3.84598494 -431.42080688 0 0 0 0
-54.39786911 -3.76315904 -431.98019409 0 0 0 0
-53.74119949 -3.53979492 -429.95278931 0 0 0 0
-52.64366150 -4.07265902 -430.43939209 0 0 0 0
-73.54695129 27.40160942 -247.68440247 0 0 0 0
-74.13392639 29.12048912 -248.71220398 0 0 0 0
-56.22180939 17.91253090 -178.91729736 0 0 0 0
-110.57140350 14.55484009 -445.98541260 0 0 0 0
-111.79579926 16.10672951 -445.41580200 0 0 0 0
-60.82302094 18.52935028 -149.66819763 0 0 0 0
-59.75996017 17.86757088 -148.78100586 0 0 0 0
-95.97852325 78.16285706 -368.49029541 0 0 0 0
-58.91122055 -0.12795970 -112.69490051 0 0 0 0
-58.72497940 -1.39317906 -111.75489807 0 0 0 0
-58.51665115 -1.27307498 -113.42109680 0 0 0 0
-84.34423828 38.66915131 -271.33389282 0 0 0 0
-84.67388153 39.72756958 -271.19448853 0 0 0 0
-109.64980316 10.43560982 -442.32049561 0 0 0 0
-76.22855377 17.83480072 -443.38320923 0 0 0 0
-100.81500244 60.97360992 -403.02050781 0 0 0 0
-101.10130310 61.03290939 -401.76559448 0 0 0 0
-101.39689636 59.91297150 -402.40179443 0 0 0 0
-78.40010834 50.85569000 -272.11569214 0 0 0 0
-78.65028381 51.93445969 -273.59368896 0 0 0 0
-78.92249298 42.00716019 -263.90130615 0 0 0 0
-78.49894714 43.27650833 -264.10189819 0 0 0 0
-79.34063721 42.99496078 -265.38619995 0 0 0 0
-54.41810989 6.44935083 -86.25404358 0 0 0 0
-101.74289703 93.07578278 -355.11199951 0 0 0 0
-101.26010132 92.83203125 -353.74710083 0 0 0 0
-51.93331909 31.02536964 -233.64630127 0 0 0 0
-52.26715088 29.31208992 -234.17129517 0 0 0 0
-97.95652771 54.57392883 -306.48080444 0 0 0 0
-92.16716766 76.28035736 -322.62631226 0 0 0 0
-91.49093628 76.40012360 -322.59729004 0 0 0 0
-91.42198944 76.61427307 -323.25531006 0 0 0 0
-70.65454865 30.03860092 -214.79829407 0 0 0 0
-103.54560089 60.86486053 -349.68719482 0 0 0 0
-103.39900208 60.76988983 -348.69869995 0 0 0 0
-104.33200073 60.49520874 -348.98089600 0 0 0 0
-90.40146637 72.66575623 -401.96841431 0 0 0 0
-90.78497314 11.88239002 -420.45669556 0 0 0 0
-99.44164276 63.35482025 -348.45059204 0 0 0 0
-99.56564331 62.86619186 -346.83068848 0 0 0 0
-22.79673958 22.06506920 -7.05838299 0 0 0 0
-22.61049080 22.15932083 -8.19919586 0 0 0 0
-23.04626083 20.95355988 -8.65099716 0 0 0 0
-76.79546356 15.25459957 -460.41400146 0 0 0 0
-75.96061707 15.43233967 -460.85559082 0 0 0 0
-77.00475311 14.38992023 -460.13949585 0 0 0 0
-76.00639343 14.57273960 -460.53170776 0 0 0 0
-73.39959717 24.52317047 -252.46789551 0 0 0 0
-83.60962677 48.93196106 -272.96310425 0 0 0 0
-102.28379822 3.69209599 24.78763008 0 0 0 0
-102.86239624 2.40836096 24.67396927 0 0 0 0
-102.52279663 2.96734810 25.97014046 0 0 0 0
-118.85140228 76.16602325 -419.94329834 0 0 0 0
-119.35220337 74.89550018 -419.52801514 0 0 0 0
-119.26409912 75.85075378 -418.51681519 0 0 0 0
-48.93714142 34.16754913 -200.93539429 0 0 0 0
-48.48339844 34.39965820 -202.74710083 0 0 0 0
-97.64984131 71.22077942 -342.50421143 0 0 0 0
-97.97609711 70.11171722 -342.66769409 0 0 0 0
-97.69773102 70.49754333 -341.38809204 0 0 0 0
-51.38211060 33.96598053 -240.31750488 0 0 0 0
-93.92442322 18.59095955 -420.35501099 0 0 0 0
-95.00115967 19.10446930 -421.80819702 0 0 0 0
-71.48578644 11.82476997 -73.24746704 0 0 0 0
-70.55774689 12.04228973 -71.85958862 0 0 0 0
-105.95580292 83.67120361 -316.20339966 0 0 0 0
-107.82740021 82.90216827 -315.33889771 0 0 0 0
-106.45690155 83.00933838 -314.43481445 0 0 0 0
-48.64786911 35.91764832 -210.73460388 0 0 0 0
-49.94345856 36.50687027 -211.49569702 0 0 0 0
-98.28235626 3.29507995 -421.60290527 0 0 0 0
-98.34372711 4.74541283 -420.50448608 0 0 0 0
-15.18284988 11.42164040 -149.98179626 0 0 0 0
-14.57804012 11.02196026 -149.05740356 0 0 0 0
-15.34805965 10.56147003 -149.83180237 0 0 0 0
-98.74057770 77.71346283 -355.08020020 0 0 0 0
-99.11575317 76.06886292 -355.11199951 0 0 0 0
-72.69287109 -22.89381981 -408.82849121 0 0 0 0
-74.78737640 -22.63624001 -408.65289307 0 0 0 0
-93.67630005 60.77814102 -412.28100586 0 0 0 0
-92.90419006 60.18822861 -413.56338501 0 0 0 0
-120.95320129 64.06775665 -358.86059570 0 0 0 0
-95.51995850 -4.17872620 -437.10211182 0 0 0 0
-93.98403931 -4.63544083 -437.48678589 0 0 0 0
-94.49833679 -4.96527004 -436.05371094 0 0 0 0
-2.37187791 -8.91468334 26.53677940 0 0 0 0
-2.70755196 -9.37217617 27.87507057 0 0 0 0
-3.47828794 -8.26390743 27.52441025 0 0 0 0
-34.87472916 20.52865028 -6.36779499 0 0 0 0
-34.78321838 20.23704910 -7.53092289 0 0 0 0
-34.90245056 19.57900047 -6.85324621 0 0 0 0
-48.72457886 -10.48643017 -46.27878952 0 0 0 0
-48.33156967 -10.34576988 -45.56492996 0 0 0 0
-88.80629730 30.63204002 -163.25489807 0 0 0 0
-88.68586731 31.45056915 -163.36689758 0 0 0 0
-89.59104919 31.55583954 -163.53320312 0 0 0 0
-94.53050995 53.17597961 -325.61059570 0 0 0 0
-93.90975189 52.73143005 -324.17871094 0 0 0 0
-95.51863098 52.36779022 -324.67858887 0 0 0 0
-98.28916168 70.78930664 -379.77328491 0 0 0 0
-98.19257355 70.22264099 -381.26290894 0 0 0 0
-98.88638306 69.30982971 -380.17181396 0 0 0 0
-85.44930267 75.52081299 -437.39950562 0 0 0 0
-121.41680145 68.73190308 -330.90509033 0 0 0 0
-24.19306946 14.63247013 -155.43089294 0 0 0 0
-24.90196991 14.47041988 -156.14030457 0 0 0 0
-24.92225075 14.24639988 -155.29589844 0 0 0 0
-100.23729706 62.61911011 -366.36410522 0 0 0 0
-52.29417038 34.27143097 -194.85299683 0 0 0 0
-96.54048920 29.45126915 -169.84910583 0 0 0 0
-96.97955322 28.75517082 -169.71659851 0 0 0 0
-97.34105682 29.60470963 -169.65130615 0 0 0 0
-95.77114105 29.75107956 -169.98080444 0 0 0 0
-95.94946289 28.89306068 -169.94909668 0 0 0 0
-121.26589966 69.77604675 -329.48910522 0 0 0 0
-121.26190186 67.89415741 -329.35949707 0 0 0 0
-101.04949951 3.33672500 -445.61770630 0 0 0 0
-99.98580170 2.58577394 -446.82629395 0 0 0 0
-27.33746910 17.54674911 -22.50769043 0 0 0 0
-26.49139977 18.00872040 -21.56203079 0 0 0 0
-26.10993004 17.34692955 -23.10836983 0 0 0 0
-68.48239899 11.27140045 -65.24613190 0 0 0 0
-95.92144012 89.74526978 -419.74880981 0 0 0 0
-97.05386353 78.36609650 -340.00048828 0 0 0 0
-40.75133896 -9.49807930 -52.39826965 0 0 0 0
-39.98667908 -10.48083019 -52.65629959 0 0 0 0
-41.09545898 -10.64881992 -53.72713852 0 0 0 0
-85.60664368 21.76026917 -270.36660767 0 0 0 0
-84.82901764 20.94618034 -269.45651245 0 0 0 0
-85.78661346 21.83525085 -268.76660156 0 0 0 0
-45.58100891 -0.91708082 -444.24099731 0 0 0 0
-43.96311951 -0.27759081 -444.45819092 0 0 0 0
-44.75297928 -0.13085280 -445.34149170 0 0 0 0
-73.31941986 -2.41361308 -60.06171036 0 0 0 0
-73.86549377 -1.83051896 -59.34738922 0 0 0 0
-74.15879822 -1.97191000 -60.15753937 0 0 0 0
-88.47712708 78.45606232 -436.02969360 0 0 0 0
-87.42606354 78.52250671 -435.00988770 0 0 0 0
-76.37271118 -3.59830999 -71.32112885 0 0 0 0
-76.37368774 -4.35135984 -71.70591736 0 0 0 0
-76.05977631 -4.85341215 -70.92665100 0 0 0 0
-11.72614956 22.78104019 6.58849382 0 0 0 0
-44.28221130 19.46710014 -18.97480965 0 0 0 0
-67.64849091 5.30157900 -156.64610291 0 0 0 0
-29.07003021 1.57866395 -453.25000000 0 0 0 0
-29.19693947 0.27801141 -453.64660645 0 0 0 0
-85.73986816 23.22771072 -453.35308838 0 0 0 0
-84.92951965 23.16319084 -452.62420654 0 0 0 0
-40.45827103 24.04124069 -210.53720093 0 0 0 0
-40.43317032 23.06693077 -211.05320740 0 0 0 0
-98.13395691 78.80403900 -307.15890503 0 0 0 0
-96.72084045 78.80806732 -308.20819092 0 0 0 0
-98.66825104 79.85843658 -308.54159546 0 0 0 0
-73.64124298 17.86547089 -191.03700256 0 0 0 0
-73.56423187 18.78750038 -192.98339844 0 0 0 0
-97.10859680 68.03286743 -389.85650635 0 0 0 0
-52.02552032 7.56167221 -231.94990540 0 0 0 0
-36.42015076 -15.26865959 -52.58472824 0 0 0 0
-35.32500076 -14.28166008 -51.92539978 0 0 0 0
-35.00955963 -15.71776962 -52.04748917 0 0 0 0
-92.40303040 61.22816086 -382.70449829 0 0 0 0
-92.43488312 60.91373825 -384.11679077 0 0 0 0
-91.17362213 61.80714035 -383.28820801 0 0 0 0
-18.81719971 -8.58709335 -32.66318130 0 0 0 0
-19.89760971 -9.57068729 -31.01512909 0 0 0 0
-18.87726021 -8.10035038 -30.75497055 0 0 0 0
-21.17167091 35.71340942 15.62726974 0 0 0 0
-20.00205040 35.83993912 15.19136047 0 0 0 0
-98.61662292 -0.67093682 -442.09899902 0 0 0 0
-98.48426819 -1.31967998 -440.50750732 0 0 0 0
-112.98120117 19.90517044 -427.79559326 0 0 0 0
-63.28277969 17.16081047 -220.55659485 0 0 0 0
-62.37195969 17.22460938 -221.35229492 0 0 0 0
-62.33794022 17.08602905 -220.35009766 0 0 0 0
-80.98462677 28.34197998 -446.66360474 0 0 0 0
-81.11515045 27.97566986 -447.45858765 0 0 0 0
-81.15827179 29.31185913 -447.31900024 0 0 0 0
-113.84839630 62.41875076 -386.48120117 0 0 0 0
-86.43094635 65.57183075 -330.72531128 0 0 0 0
-51.92010880 7.60545588 -237.55239868 0 0 0 0
-59.58153915 3.39440298 -177.16250610 0 0 0 0
-54.41799927 -1.28355002 -37.82846832 0 0 0 0
-54.75823975 -2.00695801 -37.77941895 0 0 0 0
-46.03026962 25.63503075 -174.69709778 0 0 0 0
-76.43192291 -0.93062723 -88.49185181 0 0 0 0
-76.31761932 -0.55078107 -90.22199249 0 0 0 0
-73.66895294 1.45785403 -112.37349701 0 0 0 0
-73.56833649 0.57120359 -111.03730011 0 0 0 0
-73.98819733 2.27690411 -111.34380341 0 0 0 0
-91.87457275 77.63398743 -385.84548950 0 0 0 0
-26.20816040 -1.95416105 -38.25223160 0 0 0 0
-25.92131042 -2.14380908 -38.83176041 0 0 0 0
6.91891384 -18.15302086 40.26107025 0 0 0 0
7.06203222 -19.75141907 40.65398026 0 0 0 0
8.02635288 -18.73558044 40.86212921 0 0 0 0
-94.53373718 78.43068695 -384.02920532 0 0 0 0
-47.77985001 13.00277996 -14.03682995 0 0 0 0
-48.30875015 14.75973988 -13.68842983 0 0 0 0
-49.04587173 13.44176006 -13.53232002 0 0 0 0
-82.41401672 39.69478989 -421.82431030 0 0 0 0
-82.94394684 40.40205002 -420.64349365 0 0 0 0
-83.55956268 38.92593002 -420.93798828 0 0 0 0
-82.38117218 69.17572021 -417.60360718 0 0 0 0
-58.72037125 -18.53667068 -404.79818726 0 0 0 0
-57.91324997 -18.41393089 -403.21688843 0 0 0 0
-59.08258057 -19.68894005 -403.34921265 0 0 0 0
-32.74209976 -7.49981594 -42.82244873 0 0 0 0
-33.09170914 -8.10288334 -43.23912811 0 0 0 0
-101.26149750 60.70940018 -282.65380859 0 0 0 0
-101.17009735 61.99555969 -283.73748779 0 0 0 0
-55.19802856 14.56509018 -187.14669800 0 0 0 0
-55.18310165 15.94985962 -186.13960266 0 0 0 0
-55.33143997 15.95427990 -187.65069580 0 0 0 0
-119.06150055 70.33822632 -428.14111328 0 0 0 0
-119.53739929 68.97473907 -428.15728760 0 0 0 0
-73.26834869 14.43933010 -180.77540588 0 0 0 0
-48.04833984 -20.04109001 -49.80408096 0 0 0 0
-47.71294022 -20.38743019 -48.99002075 0 0 0 0
-48.07350922 -19.59630966 -49.08826065 0 0 0 0
-70.86482239 8.51354313 -162.18580627 0 0 0 0
-70.02295685 7.38721991 -162.87350464 0 0 0 0
-69.91973877 7.46753883 -161.45140076 0 0 0 0
-71.61923981 9.98302841 -161.47019958 0 0 0 0
-50.12918854 -15.14332008 -41.70378113 0 0 0 0
-49.57981873 -15.87971020 -41.53330994 0 0 0 0
-49.16020966 -14.95687008 -41.20648956 0 0 0 0
-50.10068893 -14.21383953 -41.73096085 0 0 0 0
-51.06166840 -14.90511990 -42.10467911 0 0 0 0
-42.15776062 18.48373985 -242.09640503 0 0 0 0
-98.28280640 69.10846710 -343.91009521 0 0 0 0
-56.59946060 26.96365929 -198.94709778 0 0 0 0
-97.35249329 -3.88724303 26.75959015 0 0 0 0
-98.32819366 -3.34206295 27.64019012 0 0 0 0
-111.61080170 59.03984070 -392.21850586 0 0 0 0
-111.78130341 58.48339844 -393.81710815 0 0 0 0
-110.79560089 58.31510925 -393.12930298 0 0 0 0
-12.19423008 9.95652390 27.20891953 0 0 0 0
-12.55898952 8.57575989 26.91773987 0 0 0 0
-11.36775017 8.62283611 28.02224922 0 0 0 0
-97.68306732 35.42276001 -275.72698975 0 0 0 0
-98.36048889 37.23878860 -275.20489502 0 0 0 0
-93.42031097 82.38928223 -347.25369263 0 0 0 0
-94.58030701 81.64428711 -348.30648804 0 0 0 0
-94.37428284 81.11907196 -346.33621216 0 0 0 0
-16.61364937 -14.13722038 -30.71614075 0 0 0 0
-18.23670006 -15.18645000 -30.95134926 0 0 0 0
-16.76585960 -15.29594994 -31.91028976 0 0 0 0
-74.47923279 16.66391945 -4.91711712 0 0 0 0
-75.35151672 16.86263084 -3.60939193 0 0 0 0
-76.25788116 16.19702911 -4.44806719 0 0 0 0
-35.78570938 -12.47004986 -45.81095886 0 0 0 0
-36.03314972 -14.01492977 -45.35569000 0 0 0 0
-34.26171112 -13.42096996 -44.91662979 0 0 0 0
-97.37024689 37.42160034 -424.48910522 0 0 0 0
-95.93993378 37.14764023 -424.84799194 0 0 0 0
-120.07330322 64.31282806 -319.61080933 0 0 0 0
-120.28179932 65.72959137 -320.03921509 0 0 0 0
-120.25759888 65.00261688 -320.60150146 0 0 0 0
-76.47888947 -4.49745178 -465.48919678 0 0 0 0
-77.39257050 -4.05975914 -465.71728516 0 0 0 0
-77.01114655 -4.11962318 -464.24819946 0 0 0 0
-75.15455627 22.77918053 -163.17799377 0 0 0 0
-74.94685364 23.92333031 -162.91979980 0 0 0 0
