ply
format ascii 1.0
comment https://github.com/mikedh/trimesh
element vertex 1038
property float x
property float y
property float z
property uchar red
property uchar green
property uchar blue
property uchar alpha
end_header
281.89810181 201.23890686 36.47549820 0 0 0 0
253.68679810 237.19540405 72.11813354 0 0 0 0
253.09599304 236.89559937 71.16536713 0 0 0 0
254.03219604 236.40609741 71.18817902 0 0 0 0
278.89880371 223.99189758 25.83193016 0 0 0 0
278.63110352 225.19900513 26.23760986 0 0 0 0
279.69039917 225.28860474 27.21425056 0 0 0 0
239.23590088 205.08569336 43.30614090 0 0 0 0
239.34030151 205.13180542 44.34717941 0 0 0 0
179.48640442 238.16749573 51.06631851 0 0 0 0
235.47990417 222.27679443 67.82969666 0 0 0 0
236.31770325 222.70010376 67.83529663 0 0 0 0
275.92260742 236.40209961 77.25343323 0 0 0 0
230.12879944 226.37030029 18.27248955 0 0 0 0
229.22549438 225.96350098 18.52197075 0 0 0 0
229.25790405 226.94889832 18.42268944 0 0 0 0
230.50939941 227.37060547 18.04659081 0 0 0 0
231.14430237 226.21470642 18.00551987 0 0 0 0
271.30468750 247.00570679 66.22312164 0 0 0 0
271.55191040 247.55920410 66.93377686 0 0 0 0
237.75529480 255.56550598 41.05590057 0 0 0 0
281.85668945 198.77810669 63.78886032 0 0 0 0
235.25579834 252.47189331 66.60723114 0 0 0 0
240.49560547 200.70849609 34.36516953 0 0 0 0
240.92730713 200.22540283 33.47090912 0 0 0 0
213.54069519 210.67010498 28.74117088 0 0 0 0
212.18310547 212.39939880 28.01285934 0 0 0 0
213.31669617 211.35360718 28.42079926 0 0 0 0
213.16619873 212.06059265 28.07000923 0 0 0 0
224.57139587 203.04389954 34.71820068 0 0 0 0
225.00410461 203.31599426 33.69478989 0 0 0 0
225.83979797 203.07539368 34.62368011 0 0 0 0
224.00129700 202.85839844 35.73900986 0 0 0 0
225.19099426 202.97320557 35.69459152 0 0 0 0
214.85870361 201.78280640 39.53060913 0 0 0 0
214.60859680 201.88600159 38.30363083 0 0 0 0
213.36419678 200.92340088 46.12897110 0 0 0 0
212.37120056 200.95289612 46.41247940 0 0 0 0
206.03590393 203.64819336 50.78358078 0 0 0 0
201.93200684 207.23229980 53.66984940 0 0 0 0
201.95579529 207.86639404 54.47047043 0 0 0 0
202.03930664 208.63859558 55.38380051 0 0 0 0
203.06379700 208.03080750 55.14931870 0 0 0 0
158.75799561 215.11450195 63.27997971 0 0 0 0
265.26239014 241.24459839 77.87964630 0 0 0 0
253.26719666 196.45620728 37.83869934 0 0 0 0
252.24189758 196.84069824 37.70875168 0 0 0 0
255.30450439 249.62550354 42.77740097 0 0 0 0
254.82130432 249.62550354 41.88428116 0 0 0 0
255.23460388 248.96809387 40.81064987 0 0 0 0
169.09869385 263.75180054 48.62422943 0 0 0 0
168.99789429 264.97171021 48.34178162 0 0 0 0
283.49890137 194.26609802 56.94997025 0 0 0 0
252.44859314 262.49371338 57.72219086 0 0 0 0
252.94340515 262.28979492 58.82577896 0 0 0 0
240.11810303 210.20469666 60.89025116 0 0 0 0
240.06709290 211.12699890 61.34659958 0 0 0 0
240.81440735 210.58999634 61.18880844 0 0 0 0
240.18789673 212.34680176 61.76406097 0 0 0 0
241.11849976 211.43460083 61.57295990 0 0 0 0
274.63430786 193.71560669 66.78003693 0 0 0 0
274.21810913 197.06219482 31.57917023 0 0 0 0
273.39358521 197.38279724 30.69429016 0 0 0 0
185.01679993 260.86120605 37.74467850 0 0 0 0
217.19500732 254.15220642 42.89057922 0 0 0 0
216.94859314 254.14759827 41.85010910 0 0 0 0
218.20140076 254.14860535 42.49246979 0 0 0 0
216.71769714 254.15510559 43.83123016 0 0 0 0
217.87210083 254.15400696 43.69104004 0 0 0 0
184.60429382 269.70089722 47.41941071 0 0 0 0
275.81140137 224.58990479 53.32500076 0 0 0 0
275.29550171 224.94549561 54.00574112 0 0 0 0
275.34500122 224.05130005 54.27930832 0 0 0 0
275.87939453 223.53829956 53.55789185 0 0 0 0
247.20410156 207.87060547 60.90279007 0 0 0 0
245.93510437 207.88639832 60.49436188 0 0 0 0
194.26570129 253.84150696 36.48096848 0 0 0 0
260.42379761 243.85589600 51.86621094 0 0 0 0
260.12921143 243.52340698 51.14123154 0 0 0 0
260.36090088 244.18800354 50.73928833 0 0 0 0
260.08529663 243.13240051 51.78411865 0 0 0 0
261.07849121 244.57530212 51.22597885 0 0 0 0
260.09381104 243.13340759 52.83523941 0 0 0 0
260.76348877 243.78880310 53.06977844 0 0 0 0
261.36520386 244.23440552 52.26728821 0 0 0 0
227.57929993 216.85420227 65.10166168 0 0 0 0
226.93870544 217.73170471 65.49640656 0 0 0 0
207.38780212 234.15859985 23.57612038 0 0 0 0
206.42059326 233.39540100 23.75029945 0 0 0 0
206.24940491 234.50880432 23.98648071 0 0 0 0
207.17129517 235.37440491 23.87079048 0 0 0 0
208.62969971 233.77490234 23.21406937 0 0 0 0
208.39230347 235.01220703 23.44914055 0 0 0 0
216.56230164 253.98800659 38.09999084 0 0 0 0
217.20269775 254.07739258 38.91725922 0 0 0 0
261.05480957 197.83459473 62.86666107 0 0 0 0
260.66128540 198.30560303 62.31132126 0 0 0 0
190.73860168 226.62240601 66.26502228 0 0 0 0
229.73609924 240.75889587 68.87123871 0 0 0 0
272.75799561 195.93580627 40.56396103 0 0 0 0
271.43920898 202.96960449 47.50576019 0 0 0 0
271.33178711 201.93229675 46.58163834 0 0 0 0
188.04220581 240.23680115 60.69483948 0 0 0 0
278.54861450 223.40649414 25.36070061 0 0 0 0
190.25920105 232.00889587 30.29907990 0 0 0 0
190.17460632 230.79280090 30.34752083 0 0 0 0
189.24490356 231.32179260 31.04929924 0 0 0 0
191.01420593 231.43389893 29.72509956 0 0 0 0
189.52369690 232.65580750 30.86325073 0 0 0 0
190.53289795 233.28340149 30.15409088 0 0 0 0
191.05940247 232.47129822 29.71998024 0 0 0 0
240.03250122 205.03089905 43.50629044 0 0 0 0
258.33529663 239.34269714 57.22475052 0 0 0 0
258.95858765 239.84269714 57.95738983 0 0 0 0
258.84478760 240.29049683 57.19034958 0 0 0 0
218.56069946 248.38340759 62.58245087 0 0 0 0
216.83990479 249.04589844 61.73788834 0 0 0 0
217.98860168 249.11430359 61.87154007 0 0 0 0
234.23680115 220.82519531 66.93395233 0 0 0 0
278.66171265 230.45469666 76.30429077 0 0 0 0
278.44601440 231.42799377 76.91414642 0 0 0 0
277.67559814 230.51539612 77.05705261 0 0 0 0
220.76469421 204.04299927 56.18476868 0 0 0 0
269.13180542 247.91679382 65.03411102 0 0 0 0
282.02120972 249.95159912 46.44211960 0 0 0 0
281.83450317 251.00000000 46.80067062 0 0 0 0
282.82058716 250.84730530 46.72192001 0 0 0 0
283.31280518 249.81520081 46.37977982 0 0 0 0
265.73089600 244.00750732 53.38246918 0 0 0 0
265.64678955 244.26240540 54.50049973 0 0 0 0
219.43910217 229.36380005 19.54980087 0 0 0 0
218.40119934 228.85429382 19.88829041 0 0 0 0
218.41979980 229.91789246 19.89353943 0 0 0 0
217.40879822 229.33740234 20.26074982 0 0 0 0
237.41810608 240.37989807 22.48944092 0 0 0 0
238.71659851 240.58749390 22.76399040 0 0 0 0
238.47720337 239.74519348 22.26269913 0 0 0 0
237.13690186 241.77510071 23.31691933 0 0 0 0
238.12820435 241.28500366 23.11022949 0 0 0 0
213.87829590 209.63130188 29.21733093 0 0 0 0
214.44819641 201.63319397 40.84648895 0 0 0 0
214.70069885 200.98120117 44.69350052 0 0 0 0
215.43190002 201.06440735 43.79024124 0 0 0 0
215.74209595 200.94569397 44.97134018 0 0 0 0
214.84939575 200.91209412 45.93067932 0 0 0 0
209.53869629 202.12919617 50.88994980 0 0 0 0
153.83590698 216.25700378 67.78265381 0 0 0 0
154.08540344 215.89720154 66.75713348 0 0 0 0
154.24760437 216.77810669 66.96782684 0 0 0 0
153.62600708 215.49020386 68.83647156 0 0 0 0
154.26730347 217.24879456 67.82955933 0 0 0 0
153.95069885 216.67109680 68.66512299 0 0 0 0
171.92320251 226.23030090 69.93113708 0 0 0 0
172.60150146 225.37449646 70.35619354 0 0 0 0
173.23800659 226.17019653 69.86012268 0 0 0 0
172.37869263 227.10099792 69.36856079 0 0 0 0
265.04089355 242.33720398 77.63816071 0 0 0 0
265.95620728 241.79389954 77.75007629 0 0 0 0
251.72799683 248.75239563 35.09048843 0 0 0 0
251.71549988 249.22369385 35.96110916 0 0 0 0
250.71749878 249.77650452 36.10416031 0 0 0 0
252.65930176 197.42630005 38.69232941 0 0 0 0
256.11730957 249.85459900 44.43976974 0 0 0 0
255.38290405 250.16819763 43.74161148 0 0 0 0
173.18200684 267.39630127 52.42940903 0 0 0 0
173.82910156 266.98019409 52.95782852 0 0 0 0
174.20219421 265.96618652 53.29161072 0 0 0 0
253.78250122 262.61068726 58.01462936 0 0 0 0
253.52580261 262.79470825 56.91104889 0 0 0 0
252.44400024 262.64700317 56.48382187 0 0 0 0
239.65800476 209.29460144 60.18323135 0 0 0 0
240.94520569 209.61590576 60.62567902 0 0 0 0
274.84130859 195.17239380 66.89460754 0 0 0 0
273.34188843 195.31900024 67.53719330 0 0 0 0
274.03878784 195.55639648 67.28650665 0 0 0 0
248.18280029 259.27578735 66.00814819 0 0 0 0
275.15921021 196.86979675 32.54026031 0 0 0 0
274.99688721 197.69940186 31.81668091 0 0 0 0
275.84548950 197.96960449 32.34822845 0 0 0 0
217.96949768 254.14610291 41.45975876 0 0 0 0
216.34500122 254.13670349 40.85083008 0 0 0 0
217.33819580 254.14059448 40.97632980 0 0 0 0
184.10079956 270.03359985 46.29666901 0 0 0 0
275.57229614 225.63800049 53.25920105 0 0 0 0
274.92651367 225.74800110 54.18756866 0 0 0 0
252.33030701 204.81179810 59.16727066 0 0 0 0
252.01449585 204.75250244 58.06808853 0 0 0 0
174.96380615 231.58430481 66.06268311 0 0 0 0
174.06680298 231.97700500 65.38279724 0 0 0 0
175.41160583 230.71699524 66.96572876 0 0 0 0
176.35679626 231.42919922 66.39048767 0 0 0 0
175.05520630 232.44889832 65.06395721 0 0 0 0
176.24800110 232.26429749 65.53595734 0 0 0 0
272.33190918 205.20249939 68.31262970 0 0 0 0
205.80380249 242.02859497 26.64118004 0 0 0 0
206.24870300 241.25729370 26.14747047 0 0 0 0
193.97979736 254.85890198 37.03207016 0 0 0 0
260.23318481 243.56170654 50.44369125 0 0 0 0
260.34359741 242.71099854 51.04087067 0 0 0 0
228.07949829 216.08419800 64.66676331 0 0 0 0
205.30090332 233.80740356 24.18401909 0 0 0 0
260.39389038 198.54789734 63.24483109 0 0 0 0
189.81880188 227.36759949 66.34264374 0 0 0 0
231.16180420 240.66409302 68.77866364 0 0 0 0
230.56579590 239.86320496 69.08210754 0 0 0 0
221.35150146 230.60800171 19.15978050 0 0 0 0
274.01098633 195.87849426 39.87474823 0 0 0 0
273.75119019 195.04800415 39.17528152 0 0 0 0
187.62849426 239.44500732 61.11434937 0 0 0 0
200.30230713 238.01229858 64.04377747 0 0 0 0
201.42199707 237.05299377 64.56031036 0 0 0 0
282.35659790 202.95710754 34.75836945 0 0 0 0
282.51098633 203.99819946 34.13982010 0 0 0 0
283.34439087 203.95239258 35.22068024 0 0 0 0
282.86111450 202.90010071 35.58802032 0 0 0 0
251.70399475 237.71879578 71.12702179 0 0 0 0
252.48640442 237.55979919 71.63047791 0 0 0 0
251.66749573 238.32589722 71.93615723 0 0 0 0
250.96150208 238.20599365 71.07584381 0 0 0 0
277.96978760 224.44200134 25.33053970 0 0 0 0
189.43949890 229.99420166 30.90308952 0 0 0 0
190.17129517 229.70700073 30.35582924 0 0 0 0
190.89649963 230.17109680 29.80653000 0 0 0 0
240.61329651 205.04620361 44.22579956 0 0 0 0
241.07069397 204.77360535 43.10535049 0 0 0 0
179.26950073 237.46539307 51.83856964 0 0 0 0
235.76100159 221.69920349 67.25897217 0 0 0 0
235.23390198 220.85510254 66.70572662 0 0 0 0
229.16520691 228.14819336 18.38022041 0 0 0 0
224.28469849 206.75819397 58.59009933 0 0 0 0
223.29849243 207.36090088 59.22698975 0 0 0 0
268.52520752 248.48350525 64.69364166 0 0 0 0
268.35479736 249.50869751 65.39855194 0 0 0 0
266.44189453 243.79769897 52.16925812 0 0 0 0
266.88330078 243.86349487 53.24773026 0 0 0 0
266.62170410 244.27769470 54.24483871 0 0 0 0
282.66479492 199.19079590 63.08489990 0 0 0 0
281.80538940 199.99530029 63.75888824 0 0 0 0
234.88679504 253.31610107 65.66396332 0 0 0 0
236.02439880 253.72369385 66.14231110 0 0 0 0
241.48399353 200.22970581 34.30500031 0 0 0 0
259.65679932 221.64709473 66.59323120 0 0 0 0
220.21830750 228.42610168 19.33566093 0 0 0 0
196.49980164 225.52690125 27.00147057 0 0 0 0
195.74879456 225.23890686 27.45922089 0 0 0 0
195.89869690 226.36459351 27.19178963 0 0 0 0
195.09550476 226.11320496 27.65037918 0 0 0 0
196.90339661 226.40980530 26.68141937 0 0 0 0
196.25199890 227.42889404 26.90146065 0 0 0 0
195.04600525 227.28630066 27.51593018 0 0 0 0
225.58889771 203.61680603 32.79254913 0 0 0 0
225.97619629 203.27560425 33.59162903 0 0 0 0
215.85980225 201.86289978 38.32609940 0 0 0 0
159.47549438 218.89790344 62.20574951 0 0 0 0
160.40919495 218.75160217 61.29521942 0 0 0 0
158.51049805 218.51359558 63.14830017 0 0 0 0
160.10670471 219.92359924 61.49131012 0 0 0 0
159.39210510 220.25129700 62.32653046 0 0 0 0
158.69020081 219.66810608 63.09793091 0 0 0 0
154.75950623 216.63600159 66.08511353 0 0 0 0
252.36120605 248.18719482 34.70146179 0 0 0 0
254.93850708 195.45219421 37.62248993 0 0 0 0
254.17340088 195.16409302 36.64286041 0 0 0 0
255.36210632 194.61090088 36.76475906 0 0 0 0
253.99729919 195.79209900 37.44480896 0 0 0 0
256.10668945 195.04809570 37.86244965 0 0 0 0
254.52279663 196.21060181 38.32007980 0 0 0 0
255.72639465 195.82269287 38.55654907 0 0 0 0
256.84619141 249.57420349 45.14952850 0 0 0 0
172.05389404 268.08828735 51.06962967 0 0 0 0
171.58880615 268.28610229 50.33848953 0 0 0 0
284.16308594 193.69430542 57.48152161 0 0 0 0
284.72448730 192.86650085 58.21813965 0 0 0 0
240.61169434 208.54750061 59.75811005 0 0 0 0
239.77209473 208.30810547 59.36251831 0 0 0 0
275.41958618 193.24259949 66.41378784 0 0 0 0
275.62719727 194.26069641 66.49432373 0 0 0 0
252.23750305 257.93209839 69.97248077 0 0 0 0
251.94290161 258.43710327 68.95893860 0 0 0 0
252.80389404 258.44430542 69.20732117 0 0 0 0
251.48410034 257.18899536 70.76098633 0 0 0 0
253.20520020 258.00769043 70.09792328 0 0 0 0
252.51429749 257.30371094 70.95173645 0 0 0 0
227.52360535 211.34759521 23.78498077 0 0 0 0
226.84159851 210.80130005 24.81777954 0 0 0 0
226.37280273 211.72579956 24.04044914 0 0 0 0
227.10560608 212.24499512 23.11746025 0 0 0 0
226.01849365 212.61500549 23.31500053 0 0 0 0
184.13929749 261.88281250 37.93407059 0 0 0 0
184.02850342 264.90570068 39.28820038 0 0 0 0
184.66099548 265.65161133 39.93128967 0 0 0 0
185.25160217 269.54409790 46.21443176 0 0 0 0
274.47338867 226.74079895 54.30138016 0 0 0 0
275.16110229 226.64500427 53.37450027 0 0 0 0
274.72351074 227.65249634 53.40536880 0 0 0 0
275.34878540 227.39179993 52.66389084 0 0 0 0
275.80160522 226.51119995 52.45455933 0 0 0 0
252.59899902 204.74699402 60.36484146 0 0 0 0
251.58210754 205.34959412 61.03493118 0 0 0 0
265.37420654 205.74589539 70.21572876 0 0 0 0
264.13861084 205.60009766 70.25337219 0 0 0 0
205.32919312 242.79710388 27.19753075 0 0 0 0
195.40859985 253.42750549 36.13032150 0 0 0 0
195.15429688 254.45520020 36.79010010 0 0 0 0
196.46429443 254.00270081 36.44235992 0 0 0 0
194.90119934 255.46629333 37.38660049 0 0 0 0
196.01400757 255.13870239 37.24996185 0 0 0 0
260.36990356 244.27059937 49.66868973 0 0 0 0
260.73849487 243.06860352 49.80902863 0 0 0 0
205.20429993 235.07560730 24.45071030 0 0 0 0
206.16560364 235.28070068 24.16877937 0 0 0 0
251.73080444 243.02990723 28.40546036 0 0 0 0
217.27909851 254.12750244 40.12762070 0 0 0 0
188.89239502 227.73139954 66.48371124 0 0 0 0
229.05340576 241.70480347 68.53457642 0 0 0 0
229.83110046 241.99119568 68.44525146 0 0 0 0
230.80180359 241.76409912 68.51100159 0 0 0 0
229.06129456 242.92680359 68.06453705 0 0 0 0
230.39399719 242.85249329 68.18752289 0 0 0 0
222.43130493 231.36380005 19.13097954 0 0 0 0
222.06709290 229.94000244 19.03693962 0 0 0 0
221.99600220 232.72399902 19.42708015 0 0 0 0
223.49299622 230.35760498 18.95712090 0 0 0 0
223.63920593 231.56410217 19.06395912 0 0 0 0
223.29570007 232.71029663 19.31110954 0 0 0 0
272.60330200 196.69509888 41.29698181 0 0 0 0
273.69900513 196.73280334 40.84273911 0 0 0 0
272.29129028 203.59500122 47.66014099 0 0 0 0
272.62100220 202.82009888 46.74563980 0 0 0 0
189.70779419 241.95069885 60.16030884 0 0 0 0
199.01589966 237.72900391 63.97920990 0 0 0 0
261.87200928 197.81959534 23.29858971 0 0 0 0
197.20460510 242.19079590 61.99914169 0 0 0 0
252.28450012 237.08090210 70.64668274 0 0 0 0
277.50970459 225.69960022 25.67281914 0 0 0 0
188.55110168 230.13519287 31.57765007 0 0 0 0
188.16619873 231.25920105 31.88611984 0 0 0 0
188.71279907 232.20120239 31.45721054 0 0 0 0
240.35169983 205.07839966 45.46837997 0 0 0 0
239.00909424 205.06779480 45.45890045 0 0 0 0
241.28219604 205.03480530 44.79375839 0 0 0 0
239.38600159 204.93840027 46.44120026 0 0 0 0
241.58239746 205.01440430 45.45351028 0 0 0 0
240.35350037 204.95170593 46.62760162 0 0 0 0
241.31779480 204.97129822 46.33335114 0 0 0 0
279.14529419 231.25759888 76.26635742 0 0 0 0
279.08639526 232.01429749 76.54705811 0 0 0 0
246.03739929 197.71940613 25.74360085 0 0 0 0
209.49049377 205.02450562 54.92599106 0 0 0 0
268.74090576 247.41700745 64.22473907 0 0 0 0
268.94329834 246.29479980 63.83908844 0 0 0 0
282.31369019 251.77020264 47.17671967 0 0 0 0
226.54660034 256.10778809 53.37092972 0 0 0 0
225.72540283 255.58210754 54.44578171 0 0 0 0
227.15510559 255.94779968 54.28200912 0 0 0 0
283.43319702 198.43789673 62.26406860 0 0 0 0
212.11869812 205.97210693 56.81761169 0 0 0 0
227.75840759 254.56669617 56.97834015 0 0 0 0
227.61959839 255.18789673 55.91989899 0 0 0 0
226.47880554 254.61189270 56.53129959 0 0 0 0
228.67280579 255.08129883 56.45528030 0 0 0 0
259.76269531 222.43640137 65.79213715 0 0 0 0
260.63531494 222.14379883 66.44518280 0 0 0 0
220.84129333 227.69299316 19.21109962 0 0 0 0
239.40620422 239.80619812 22.42641068 0 0 0 0
239.84739685 240.73249817 23.03713989 0 0 0 0
240.60209656 239.74830627 22.59692955 0 0 0 0
195.57550049 223.88769531 27.86298943 0 0 0 0
194.81050110 225.13929749 27.98843956 0 0 0 0
226.51379395 203.85279846 32.10261154 0 0 0 0
226.84950256 203.35279846 33.04916000 0 0 0 0
216.21710205 201.74209595 39.67253876 0 0 0 0
215.61540222 201.59550476 40.72274017 0 0 0 0
216.66369629 201.14810181 43.18272018 0 0 0 0
216.74220276 201.00300598 44.32387924 0 0 0 0
201.12809753 209.35119629 55.81277084 0 0 0 0
203.14469910 208.83549500 56.01959991 0 0 0 0
202.24600220 209.37789917 56.26166153 0 0 0 0
160.98159790 217.74540710 61.03105927 0 0 0 0
175.16439819 224.87620544 70.15711975 0 0 0 0
173.87959290 225.13499451 70.28471375 0 0 0 0
174.55979919 226.01860046 69.78045654 0 0 0 0
175.84170532 225.81619263 69.67153168 0 0 0 0
176.40289307 224.68940735 69.95075989 0 0 0 0
252.73420715 248.60029602 35.81435013 0 0 0 0
254.41780090 194.57240295 35.89249039 0 0 0 0
258.10128784 248.17750549 46.05125046 0 0 0 0
257.75109863 249.34759521 46.03406906 0 0 0 0
172.46040344 269.04769897 50.57415009 0 0 0 0
171.53840637 268.90060425 49.44002151 0 0 0 0
228.05639648 210.47990417 24.43296051 0 0 0 0
227.59809875 209.96279907 25.37059975 0 0 0 0
226.70790100 210.16310120 25.69572067 0 0 0 0
226.05850220 210.58779907 25.56368065 0 0 0 0
274.33300781 198.04629517 31.07346916 0 0 0 0
186.14289856 231.59469604 33.90061951 0 0 0 0
186.33099365 230.23039246 33.65800095 0 0 0 0
185.69119263 230.46330261 34.43550110 0 0 0 0
216.76910400 254.16949463 45.11766815 0 0 0 0
217.57279968 254.16380310 44.62285995 0 0 0 0
191.43150330 210.44079590 50.51665115 0 0 0 0
190.48730469 210.86169434 50.97896957 0 0 0 0
190.60099792 210.90490723 49.95907974 0 0 0 0
191.43699646 210.51069641 49.61735153 0 0 0 0
190.91459656 210.87130737 49.11376953 0 0 0 0
252.66969299 204.52020264 57.23424149 0 0 0 0
253.04040527 204.53370667 58.19076920 0 0 0 0
253.70249939 204.40150452 57.09247971 0 0 0 0
251.82620239 204.56719971 56.90840912 0 0 0 0
252.82949829 204.36129761 56.00378036 0 0 0 0
174.57980347 229.87240601 67.60315704 0 0 0 0
267.45550537 206.10079956 70.09734344 0 0 0 0
266.24859619 206.38180542 70.24498749 0 0 0 0
206.53370667 240.29930115 25.65121078 0 0 0 0
260.80950928 245.11830139 50.19932938 0 0 0 0
260.78219604 243.74600220 48.72467041 0 0 0 0
260.29199219 245.42590332 49.30493927 0 0 0 0
260.30230713 244.75680542 48.53977966 0 0 0 0
257.29959106 239.82510376 28.21375084 0 0 0 0
218.36909485 254.12159729 39.47639847 0 0 0 0
218.40559387 254.04010010 38.21638870 0 0 0 0
255.76669312 260.34768677 49.39776993 0 0 0 0
255.84330750 259.64068604 48.70008087 0 0 0 0
254.89779663 260.18121338 49.17995071 0 0 0 0
261.22689819 197.91769409 63.98067093 0 0 0 0
262.02880859 197.06219482 64.05840302 0 0 0 0
272.18069458 197.33830261 41.98701096 0 0 0 0
273.31408691 197.49659729 41.66186905 0 0 0 0
264.13739014 242.06460571 46.68952179 0 0 0 0
265.19198608 241.33909607 46.74966812 0 0 0 0
266.09008789 241.11340332 45.82783890 0 0 0 0
266.26470947 240.58459473 46.90525055 0 0 0 0
272.56091309 204.43269348 48.30665970 0 0 0 0
273.36291504 203.82929993 47.29064941 0 0 0 0
187.62579346 243.47579956 58.20146179 0 0 0 0
188.53359985 243.18099976 58.84825897 0 0 0 0
188.59649658 244.04110718 58.36376953 0 0 0 0
262.52380371 194.93490601 24.97188950 0 0 0 0
262.91711426 195.99440002 24.59119987 0 0 0 0
263.62109375 195.16859436 25.37965012 0 0 0 0
263.25860596 194.08299255 25.85127068 0 0 0 0
196.82600403 243.38850403 61.43941116 0 0 0 0
197.32839966 244.28179932 61.13819885 0 0 0 0
196.92739868 245.18299866 60.64640045 0 0 0 0
260.61968994 240.49859619 58.68109131 0 0 0 0
261.46038818 240.31030273 59.25151825 0 0 0 0
215.78300476 249.13360596 61.54835892 0 0 0 0
233.93550110 225.23820496 69.48983002 0 0 0 0
278.45361328 232.70919800 77.05187988 0 0 0 0
224.29890442 207.46200562 59.19905090 0 0 0 0
240.30940247 255.76620483 41.31764984 0 0 0 0
241.46299744 255.74620056 41.45286179 0 0 0 0
240.86900330 255.24360657 40.51340866 0 0 0 0
226.64810181 255.35859680 55.29003906 0 0 0 0
283.35281372 199.59849548 62.20861816 0 0 0 0
282.64181519 200.32359314 63.00904083 0 0 0 0
212.17909241 205.26730347 56.19157028 0 0 0 0
220.78610229 229.57589722 19.21426010 0 0 0 0
221.58639526 228.60029602 19.07370949 0 0 0 0
197.35040283 225.24090576 26.60862923 0 0 0 0
216.96730042 201.83230591 38.91365051 0 0 0 0
217.46099854 201.73080444 40.09925842 0 0 0 0
216.63850403 201.59449768 40.74234009 0 0 0 0
212.91909790 201.01809692 49.63774109 0 0 0 0
211.79370117 201.16979980 49.57007980 0 0 0 0
212.82409668 200.95629883 48.62276840 0 0 0 0
212.71850586 201.24740601 50.73471832 0 0 0 0
213.82519531 200.93479919 49.09130859 0 0 0 0
213.61000061 201.02340698 50.05590057 0 0 0 0
264.24911499 243.30149841 77.35723877 0 0 0 0
266.35809326 242.90690613 77.38162231 0 0 0 0
265.35839844 243.50340271 77.28061676 0 0 0 0
253.21549988 247.57659912 34.45753098 0 0 0 0
253.28019714 248.01280212 35.26409912 0 0 0 0
256.40548706 193.65409851 36.23614883 0 0 0 0
256.59051514 194.31100464 37.26245117 0 0 0 0
172.99940491 268.33279419 51.75339127 0 0 0 0
283.93850708 195.14070129 57.42576981 0 0 0 0
253.35249329 262.02850342 59.60319138 0 0 0 0
253.31269836 261.69140625 60.29547119 0 0 0 0
252.80230713 261.30621338 61.02293015 0 0 0 0
276.51919556 193.42109680 66.02706909 0 0 0 0
275.95010376 195.44500732 66.45761108 0 0 0 0
276.66760254 194.63710022 66.12156677 0 0 0 0
252.74920654 258.85369873 68.09117126 0 0 0 0
228.64219666 211.00059509 23.51357079 0 0 0 0
228.18710327 211.91239929 22.88555908 0 0 0 0
275.24270630 198.58569336 31.48447037 0 0 0 0
185.82139587 233.90669250 34.34125137 0 0 0 0
185.38549805 233.38049316 34.88447952 0 0 0 0
185.40089417 234.27330017 34.90388870 0 0 0 0
185.31030273 235.42070007 35.17604828 0 0 0 0
185.85820007 234.81289673 34.37319946 0 0 0 0
191.49949646 210.42579651 51.69963074 0 0 0 0
273.97689819 227.74070740 54.35054016 0 0 0 0
253.94679260 204.34979248 58.26659012 0 0 0 0
268.43728638 205.98550415 69.97357941 0 0 0 0
204.81449890 243.55220032 27.82192993 0 0 0 0
203.78689575 243.38580322 27.96593094 0 0 0 0
196.37289429 253.05250549 35.75846100 0 0 0 0
182.28770447 256.61389160 54.56179047 0 0 0 0
181.56440735 257.19009399 54.28047943 0 0 0 0
183.12959290 255.91859436 54.87874985 0 0 0 0
183.26679993 257.07501221 54.95909882 0 0 0 0
182.37930298 257.69049072 54.60686111 0 0 0 0
228.84539795 217.02319336 65.06284332 0 0 0 0
228.15400696 217.90769958 65.52575684 0 0 0 0
204.01950073 234.23240662 24.66530991 0 0 0 0
203.50990295 233.23919678 24.66452980 0 0 0 0
267.68679810 230.59060669 24.95598030 0 0 0 0
266.82321167 231.41929626 25.25451088 0 0 0 0
267.91900635 231.46200562 25.87388992 0 0 0 0
266.93231201 232.27980042 26.12317085 0 0 0 0
268.71090698 230.47270203 25.38129997 0 0 0 0
269.03570557 231.17210388 26.19733047 0 0 0 0
268.55108643 231.90939331 26.64388084 0 0 0 0
267.78289795 232.44119263 26.73981094 0 0 0 0
218.25360107 254.14100647 40.60633087 0 0 0 0
256.78628540 260.10360718 49.27674103 0 0 0 0
185.70280457 228.20179749 67.24182129 0 0 0 0
271.41510010 204.75849915 49.20169067 0 0 0 0
196.38989258 240.28720093 62.63346100 0 0 0 0
195.36959839 240.55700684 62.35596848 0 0 0 0
264.83441162 248.24360657 75.41853333 0 0 0 0
263.71078491 248.37860107 75.64533997 0 0 0 0
262.35739136 196.83839417 23.92801094 0 0 0 0
281.48928833 223.01010132 27.70635986 0 0 0 0
241.55029297 204.89680481 44.04946899 0 0 0 0
267.32910156 204.90789795 51.34865189 0 0 0 0
266.45040894 205.11779785 51.96934128 0 0 0 0
266.28878784 204.37530518 51.09449005 0 0 0 0
259.65509033 240.65600586 57.81425095 0 0 0 0
220.33279419 248.08940125 63.25738907 0 0 0 0
219.83039856 248.63510132 62.68687057 0 0 0 0
221.16270447 248.72039795 62.98048019 0 0 0 0
219.20730591 249.28059387 61.97988129 0 0 0 0
220.50720215 249.47030640 62.12166977 0 0 0 0
208.99839783 205.75219727 55.43825150 0 0 0 0
241.87219238 255.21949768 40.65885162 0 0 0 0
242.78050232 255.53019714 41.40731812 0 0 0 0
283.50671387 251.66479492 47.08729935 0 0 0 0
283.10418701 252.53059387 47.64328003 0 0 0 0
227.70610046 255.72070312 55.02476883 0 0 0 0
212.83659363 205.46459961 56.60963821 0 0 0 0
237.08430481 254.56669617 66.17568970 0 0 0 0
236.93730164 253.79249573 66.83709717 0 0 0 0
242.08210754 199.71260071 33.60932922 0 0 0 0
261.14520264 222.87420654 65.76072693 0 0 0 0
219.21609497 230.39599609 19.64043999 0 0 0 0
241.00349426 240.84509277 23.32732010 0 0 0 0
194.88619995 222.81069946 28.54458046 0 0 0 0
194.44659424 224.02839661 28.44058990 0 0 0 0
214.87950134 210.50140381 28.69142914 0 0 0 0
193.96200562 211.57839966 35.13127899 0 0 0 0
194.63499451 211.78889465 34.21994019 0 0 0 0
195.06619263 210.71049500 35.01121140 0 0 0 0
193.46620178 212.69059753 34.41921997 0 0 0 0
194.26240540 210.83819580 35.82667160 0 0 0 0
193.11540222 212.18769836 35.39690018 0 0 0 0
193.42730713 211.46270752 36.12427902 0 0 0 0
211.72009277 201.04029846 48.12324142 0 0 0 0
211.47940063 201.54260254 50.94630051 0 0 0 0
205.08489990 207.82330322 55.76446915 0 0 0 0
161.98109436 216.10929871 60.93416977 0 0 0 0
154.80059814 217.57560730 66.75361633 0 0 0 0
155.62989807 217.55259705 65.58345795 0 0 0 0
173.75369263 227.09100342 69.32328033 0 0 0 0
254.26570129 194.12550354 34.93648911 0 0 0 0
284.74578857 194.13130188 58.22087097 0 0 0 0
254.22399902 262.27749634 59.05519104 0 0 0 0
254.20799255 261.79559326 60.07981873 0 0 0 0
228.52969360 209.72860718 25.03507996 0 0 0 0
229.22779846 210.05169678 24.18379974 0 0 0 0
186.18960571 233.10009766 33.88100052 0 0 0 0
185.40460205 232.29780579 34.84352875 0 0 0 0
192.35209656 210.03390503 49.80447006 0 0 0 0
191.83799744 210.45869446 48.65277100 0 0 0 0
274.21499634 228.67649841 53.39868927 0 0 0 0
273.37051392 228.72070312 54.41576004 0 0 0 0
273.57638550 229.70979309 53.41629028 0 0 0 0
272.58081055 229.77180481 54.50302124 0 0 0 0
175.99809265 229.75650024 67.70243073 0 0 0 0
268.23858643 206.96290588 70.03394318 0 0 0 0
267.18209839 207.16960144 70.22255707 0 0 0 0
206.53819275 242.83309937 26.94382095 0 0 0 0
206.02369690 243.63340759 27.59209061 0 0 0 0
266.64538574 230.57870483 24.43008041 0 0 0 0
265.76440430 231.39759827 24.69626045 0 0 0 0
265.95410156 232.21490479 25.54424095 0 0 0 0
219.41610718 254.09550476 38.73059845 0 0 0 0
219.35229492 254.13870239 40.10007095 0 0 0 0
220.50830078 254.13099670 39.34585953 0 0 0 0
220.32629395 254.14120483 40.87255096 0 0 0 0
219.12109375 254.14370728 41.48701859 0 0 0 0
253.67219543 204.15879822 62.75782013 0 0 0 0
254.63279724 203.46180725 63.22100830 0 0 0 0
254.02510071 204.16340637 63.97504044 0 0 0 0
252.58560181 204.94149780 62.54866028 0 0 0 0
253.14480591 204.87780762 63.81019974 0 0 0 0
183.98449707 227.32179260 67.81939697 0 0 0 0
273.89080811 204.67820740 47.77545929 0 0 0 0
274.41641235 204.17309570 46.97637939 0 0 0 0
274.13931274 203.26519775 46.28400040 0 0 0 0
197.46209717 238.38330078 63.54228973 0 0 0 0
263.31539917 196.94700623 24.35158920 0 0 0 0
264.12741089 196.39779663 25.02371025 0 0 0 0
282.54260254 205.19599915 33.42955017 0 0 0 0
283.43829346 204.97070312 34.43489075 0 0 0 0
197.76210022 243.25000000 61.65607834 0 0 0 0
187.65649414 230.06990051 32.31140900 0 0 0 0
238.06889343 204.85839844 46.20201111 0 0 0 0
260.74499512 241.29800415 57.95446014 0 0 0 0
261.70730591 241.02000427 58.75214005 0 0 0 0
221.02749634 247.90730286 63.59038162 0 0 0 0
279.46771240 232.81129456 76.18904114 0 0 0 0
257.09710693 190.96400452 28.16596031 0 0 0 0
267.82238770 249.24659729 63.89477921 0 0 0 0
267.72180176 250.27780151 65.00530243 0 0 0 0
268.14779663 250.41220093 66.27385712 0 0 0 0
284.02670288 250.70150757 46.64374161 0 0 0 0
228.56410217 256.21340942 54.40177917 0 0 0 0
228.67439270 255.67799377 55.48270035 0 0 0 0
284.09039307 197.63409424 61.35276031 0 0 0 0
235.95579529 203.86540222 38.26124954 0 0 0 0
235.48039246 204.32310486 39.23355865 0 0 0 0
234.53779602 204.00270081 38.26829147 0 0 0 0
261.82141113 222.01080322 66.91557312 0 0 0 0
262.54928589 222.76499939 66.14158630 0 0 0 0
263.02899170 222.06039429 67.01217651 0 0 0 0
222.40620422 226.11030579 19.06953049 0 0 0 0
247.94729614 230.96220398 19.93751907 0 0 0 0
247.13890076 231.71000671 20.13314056 0 0 0 0
248.13810730 231.97380066 20.38412094 0 0 0 0
246.80780029 230.58560181 19.60782051 0 0 0 0
249.06489563 231.43699646 20.27655983 0 0 0 0
249.06930542 230.28399658 19.79879951 0 0 0 0
247.89070129 230.11770630 19.57173920 0 0 0 0
197.96270752 226.16349792 26.20043945 0 0 0 0
197.56840515 227.67340088 26.27857018 0 0 0 0
214.18209839 211.56590271 28.21569061 0 0 0 0
195.50239563 211.14849854 34.09371185 0 0 0 0
195.49290466 212.05360413 33.31690979 0 0 0 0
194.38819885 212.84680176 33.48411942 0 0 0 0
218.05639648 201.89019775 39.03382874 0 0 0 0
218.13319397 201.13920593 43.67560959 0 0 0 0
204.10940552 208.31990051 55.86355972 0 0 0 0
161.60380554 217.04469299 60.78374863 0 0 0 0
269.65148926 231.61059570 77.49159241 0 0 0 0
270.37161255 232.47439575 77.85054016 0 0 0 0
269.36859131 232.73739624 77.79711151 0 0 0 0
271.22189331 231.29249573 77.67595673 0 0 0 0
268.57220459 232.48860168 77.58042145 0 0 0 0
270.47619629 230.41889954 77.14568329 0 0 0 0
254.49789429 193.42019653 33.87319183 0 0 0 0
258.55300903 247.36560059 46.16878128 0 0 0 0
172.53230286 269.85299683 49.47119904 0 0 0 0
173.56509399 269.45318604 51.24399948 0 0 0 0
173.37809753 270.09091187 50.20444107 0 0 0 0
276.44351196 195.56269836 55.52067184 0 0 0 0
251.79789734 259.15881348 66.87492371 0 0 0 0
253.81820679 258.59179688 69.02639008 0 0 0 0
254.08320618 258.94659424 67.88661957 0 0 0 0
253.46220398 259.13378906 66.86592102 0 0 0 0
228.23860168 209.19500732 25.92132950 0 0 0 0
227.04359436 209.39329529 26.45108032 0 0 0 0
274.53500366 199.11079407 30.65273094 0 0 0 0
186.49670410 264.81289673 40.00886917 0 0 0 0
217.86709595 254.20989990 45.66487122 0 0 0 0
216.96220398 254.23680115 46.38082886 0 0 0 0
192.22799683 210.06840515 50.94981003 0 0 0 0
275.07128906 228.44979858 52.33113098 0 0 0 0
274.40161133 229.58070374 52.42287827 0 0 0 0
176.52909851 230.65100098 67.05802155 0 0 0 0
269.20779419 206.59210205 69.80798340 0 0 0 0
204.85679626 236.18269348 24.81847000 0 0 0 0
204.66369629 237.16610718 25.13344955 0 0 0 0
205.65890503 237.03439331 24.79191971 0 0 0 0
203.72839355 236.27220154 25.17778015 0 0 0 0
206.17930603 236.14630127 24.38212967 0 0 0 0
204.09620667 235.38259888 24.86632919 0 0 0 0
187.54530334 255.92140198 37.10509872 0 0 0 0
230.24969482 215.95249939 64.26777649 0 0 0 0
229.78300476 216.69309998 64.77691650 0 0 0 0
268.45370483 229.82170105 24.69103050 0 0 0 0
267.60998535 229.74330139 24.21958923 0 0 0 0
225.39669800 231.76350403 19.03653908 0 0 0 0
224.60800171 231.11990356 18.97027969 0 0 0 0
224.45309448 232.21359253 19.14135933 0 0 0 0
225.76300049 230.76939392 18.90629959 0 0 0 0
225.48539734 232.89280701 19.27322006 0 0 0 0
226.56759644 231.80000305 19.01144981 0 0 0 0
274.79959106 196.88360596 40.40103912 0 0 0 0
274.36419678 197.64729309 41.29758072 0 0 0 0
260.53518677 244.84660339 46.69585037 0 0 0 0
295.20129395 249.06959534 53.43489838 0 0 0 0
295.53109741 248.22160339 52.75363922 0 0 0 0
296.03091431 249.12449646 52.29312897 0 0 0 0
294.76379395 247.74180603 53.35023117 0 0 0 0
295.80520630 250.24310303 52.73968887 0 0 0 0
294.98291016 250.52420044 53.76137161 0 0 0 0
294.49060059 249.50160217 54.29040146 0 0 0 0
294.20388794 248.38000488 54.22821045 0 0 0 0
189.51719666 242.96139526 59.43444061 0 0 0 0
197.95710754 239.10350037 63.32978821 0 0 0 0
197.53379822 240.08979797 62.88460159 0 0 0 0
198.46009827 242.42860413 62.09386063 0 0 0 0
282.35101318 222.32159424 28.24505043 0 0 0 0
282.53829956 221.21380615 28.15167999 0 0 0 0
187.13839722 231.19830322 32.80767059 0 0 0 0
186.94709778 229.86180115 32.97895813 0 0 0 0
268.38879395 205.48109436 51.55809021 0 0 0 0
268.03939819 204.69400024 50.76393890 0 0 0 0
268.76000977 204.92570496 50.66341019 0 0 0 0
226.25309753 225.98379517 68.35366821 0 0 0 0
227.54849243 225.60420227 68.66058350 0 0 0 0
227.36920166 226.70089722 68.99642181 0 0 0 0
228.50939941 226.19549561 69.15306854 0 0 0 0
226.15980530 227.24029541 68.79524231 0 0 0 0
228.45159912 227.32029724 69.46327972 0 0 0 0
227.26069641 227.84509277 69.31397247 0 0 0 0
279.08288574 233.68840027 76.50626373 0 0 0 0
257.81649780 191.81959534 26.42181015 0 0 0 0
257.95260620 191.16560364 27.45244026 0 0 0 0
268.16149902 247.99690247 63.78414917 0 0 0 0
283.93249512 198.86810303 61.21279907 0 0 0 0
229.74620056 255.52400208 56.16104889 0 0 0 0
230.69099426 255.28450012 56.92969131 0 0 0 0
230.87280273 255.94830322 55.94395065 0 0 0 0
221.86070251 227.36059570 19.05773926 0 0 0 0
223.85369873 226.08680725 18.92977905 0 0 0 0
222.92880249 226.96510315 18.95310974 0 0 0 0
246.05389404 231.76939392 19.98254013 0 0 0 0
246.67959595 232.88490295 20.52492905 0 0 0 0
247.50079346 232.51370239 20.51045036 0 0 0 0
196.14849854 210.38040161 34.34754944 0 0 0 0
196.24569702 211.14959717 33.52439117 0 0 0 0
218.52290344 201.84140015 40.03763962 0 0 0 0
218.44650269 201.66729736 41.05316162 0 0 0 0
217.49079895 201.50230408 41.44453812 0 0 0 0
217.78439331 200.96290588 45.03236008 0 0 0 0
218.87330627 201.02110291 44.81349182 0 0 0 0
219.41299438 201.15379333 44.13909912 0 0 0 0
210.56179810 201.90429688 51.24361038 0 0 0 0
175.20390320 227.07319641 69.21917725 0 0 0 0
177.02749634 219.72340393 70.54763031 0 0 0 0
176.94160461 220.84140015 70.51849365 0 0 0 0
266.84680176 233.89639282 77.55726624 0 0 0 0
267.73089600 233.23449707 77.59813690 0 0 0 0
267.85778809 234.38769531 77.84027863 0 0 0 0
170.66209412 268.22808838 48.80966949 0 0 0 0
171.93679810 269.75479126 48.55971909 0 0 0 0
171.06500244 269.02520752 48.26123810 0 0 0 0
275.22518921 194.94880676 55.77146149 0 0 0 0
254.82859802 262.58779907 58.27816010 0 0 0 0
254.91470337 262.82830811 57.27869034 0 0 0 0
255.87890625 262.57119751 58.20174026 0 0 0 0
254.40119934 262.95880127 56.03984833 0 0 0 0
256.40631104 262.80068970 57.25014114 0 0 0 0
255.65750122 262.98190308 56.20275116 0 0 0 0
237.38859558 213.99809265 62.00735855 0 0 0 0
267.72610474 195.15490723 67.49360657 0 0 0 0
267.20220947 195.77189636 67.69506073 0 0 0 0
266.65658569 195.13059998 66.98589325 0 0 0 0
268.15640259 196.07749939 68.12064362 0 0 0 0
269.07839966 195.36250305 67.92704010 0 0 0 0
230.12049866 209.40299988 24.31624031 0 0 0 0
229.45140076 208.98480225 25.32196045 0 0 0 0
230.63900757 208.66400146 24.81343079 0 0 0 0
230.33869934 208.20050049 25.65424919 0 0 0 0
228.80059814 208.53289795 26.38709068 0 0 0 0
229.64169312 208.07130432 26.37665939 0 0 0 0
275.44409180 199.63040161 31.05661964 0 0 0 0
276.16500854 199.05389404 31.92034912 0 0 0 0
185.66079712 236.83869934 34.97885895 0 0 0 0
186.00079346 235.92930603 34.35261917 0 0 0 0
186.11759949 238.17030334 34.79335022 0 0 0 0
186.33259583 237.07460022 34.19144821 0 0 0 0
218.46459961 254.17379761 44.73958969 0 0 0 0
192.79960632 209.92730713 51.92137909 0 0 0 0
192.11189270 210.31340027 52.68957901 0 0 0 0
191.16659546 210.66259766 52.77579117 0 0 0 0
252.36920166 204.89320374 61.41263962 0 0 0 0
173.85549927 232.57429504 64.46507263 0 0 0 0
172.73930359 232.41569519 64.21273804 0 0 0 0
270.11770630 206.00419617 69.52165985 0 0 0 0
270.13519287 207.49490356 69.42310333 0 0 0 0
268.99850464 207.87120056 69.86026001 0 0 0 0
207.22850037 239.36149597 25.08116913 0 0 0 0
207.33670044 238.33430481 24.66657066 0 0 0 0
208.58230591 238.83439636 24.49209976 0 0 0 0
207.68490601 240.41700745 25.40205002 0 0 0 0
208.57960510 239.99270630 24.98167038 0 0 0 0
187.40559387 257.01220703 37.18283081 0 0 0 0
188.54100037 256.53869629 37.21503830 0 0 0 0
188.48980713 257.71490479 37.43902969 0 0 0 0
187.18299866 258.12249756 37.34537888 0 0 0 0
265.43701172 230.55439758 23.83395958 0 0 0 0
264.82260132 231.41329956 24.23451042 0 0 0 0
172.56570435 231.90690613 57.84741974 0 0 0 0
172.57620239 231.14900208 57.09907913 0 0 0 0
171.79750061 231.34800720 58.00392914 0 0 0 0
173.43800354 232.17160034 57.33958054 0 0 0 0
172.21220398 232.35130310 58.87210846 0 0 0 0
172.97740173 232.55619812 58.22634888 0 0 0 0
254.93649292 203.56480408 64.40225220 0 0 0 0
255.60229492 202.81770325 63.86548996 0 0 0 0
226.82170105 243.69970703 67.39289856 0 0 0 0
228.04980469 244.17419434 67.44171906 0 0 0 0
225.70939636 243.45820618 67.25969696 0 0 0 0
227.01710510 244.77160645 66.98158264 0 0 0 0
225.99920654 244.59570312 66.82080078 0 0 0 0
224.84199524 229.99409485 18.88608932 0 0 0 0
275.31631470 196.23410034 39.41936874 0 0 0 0
274.74520874 195.37190247 38.81356049 0 0 0 0
295.23010254 247.29730225 52.38729095 0 0 0 0
295.96459961 248.06390381 51.83309937 0 0 0 0
189.64619446 244.08929443 58.80899048 0 0 0 0
190.60650635 243.67460632 59.45079041 0 0 0 0
190.45759583 242.82409668 59.91801834 0 0 0 0
198.29089355 238.32000732 63.67567062 0 0 0 0
263.07940674 197.82769775 23.87429047 0 0 0 0
284.24261475 205.17430115 35.34072113 0 0 0 0
284.21139526 204.53179932 36.21226883 0 0 0 0
283.48168945 203.43499756 36.32070160 0 0 0 0
198.37950134 243.98609924 61.44139862 0 0 0 0
198.48420715 243.19500732 61.78993988 0 0 0 0
281.45169067 224.16900635 28.16188049 0 0 0 0
282.16720581 223.39379883 28.46091080 0 0 0 0
187.94110107 232.37269592 32.08473969 0 0 0 0
187.06700134 232.62780762 32.90655899 0 0 0 0
242.38250732 204.54170227 43.40024948 0 0 0 0
221.32460022 247.17050171 64.20527649 0 0 0 0
278.17001343 234.19400024 77.03192902 0 0 0 0
279.18038940 234.66690063 76.11815643 0 0 0 0
227.98590088 228.27999878 18.62015915 0 0 0 0
258.79238892 191.59240723 26.72569084 0 0 0 0
258.57250977 192.20410156 25.94675064 0 0 0 0
272.32638550 246.66560364 66.77483368 0 0 0 0
243.98170471 255.43620300 41.65089035 0 0 0 0
243.63189697 255.06309509 40.91690826 0 0 0 0
284.70581055 251.60139465 47.01422882 0 0 0 0
285.21728516 250.55960083 46.55664062 0 0 0 0
284.15231323 252.33180237 47.46411896 0 0 0 0
286.00289917 251.66220093 46.95499039 0 0 0 0
285.19970703 252.53179932 47.54779816 0 0 0 0
229.84950256 256.60919189 54.23482132 0 0 0 0
228.95410156 256.63708496 53.51147079 0 0 0 0
229.80320740 256.12200928 55.19200897 0 0 0 0
280.23660278 202.75270081 64.47675323 0 0 0 0
280.67990112 203.71299744 64.00997925 0 0 0 0
279.65780640 203.83549500 64.63278198 0 0 0 0
281.21868896 202.58549500 63.86798096 0 0 0 0
280.79650879 201.81950378 64.27263641 0 0 0 0
238.15620422 255.17669678 66.42688751 0 0 0 0
239.35740662 255.81289673 66.69233704 0 0 0 0
238.49600220 255.89039612 65.81709290 0 0 0 0
231.76289368 255.69129944 56.73476028 0 0 0 0
245.56500244 232.95429993 20.36910057 0 0 0 0
245.48770142 230.76080322 19.46055031 0 0 0 0
199.01280212 225.84049988 25.77198982 0 0 0 0
200.08459473 225.78840637 25.39348984 0 0 0 0
215.31979370 211.43930054 28.15807915 0 0 0 0
216.02229309 210.96290588 28.33488083 0 0 0 0
196.04100037 209.70100403 35.29893112 0 0 0 0
195.06550598 209.99209595 36.18637848 0 0 0 0
219.37179565 202.00869751 39.40887070 0 0 0 0
218.81230164 201.99909973 38.20269012 0 0 0 0
216.72540283 200.92720032 45.24211884 0 0 0 0
217.27679443 200.90080261 46.11587143 0 0 0 0
218.88209534 200.93139648 46.11510849 0 0 0 0
154.97549438 218.28199768 67.95883942 0 0 0 0
155.48640442 218.54589844 66.63269043 0 0 0 0
154.47659302 217.49400330 68.95497131 0 0 0 0
155.71730042 219.25320435 67.67334747 0 0 0 0
155.54910278 219.00169373 68.67249298 0 0 0 0
155.20550537 218.31559753 69.31688690 0 0 0 0
172.80419922 228.16250610 68.69712830 0 0 0 0
268.67660522 233.53370667 77.83914948 0 0 0 0
250.14889526 246.51049805 31.26038933 0 0 0 0
275.26541138 196.05650330 55.54695892 0 0 0 0
276.22509766 196.79800415 55.43267059 0 0 0 0
277.38940430 196.59829712 55.45803833 0 0 0 0
255.38169861 262.32849121 58.91242981 0 0 0 0
238.67610168 214.13070679 62.04056931 0 0 0 0
266.32299805 195.97479248 67.39498138 0 0 0 0
267.25830078 196.67070007 68.19695282 0 0 0 0
230.33430481 210.00610352 23.51828957 0 0 0 0
231.03919983 209.18519592 23.91539955 0 0 0 0
226.23590088 203.27290344 41.95531845 0 0 0 0
227.26319885 203.63940430 41.69665909 0 0 0 0
227.07090759 203.31100464 42.59193039 0 0 0 0
228.03559875 203.54289246 42.66273880 0 0 0 0
226.31239319 202.96319580 43.01393890 0 0 0 0
227.39199829 203.09500122 43.54959106 0 0 0 0
218.89190674 254.15130615 43.64862061 0 0 0 0
193.08000183 209.67059326 50.69692993 0 0 0 0
193.47610474 209.47839355 49.60305023 0 0 0 0
192.96830750 209.84410095 48.61291122 0 0 0 0
176.17860413 233.11540222 64.49511719 0 0 0 0
174.93649292 233.02999878 64.22308350 0 0 0 0
271.12478638 206.47439575 68.99172211 0 0 0 0
206.80000305 237.36799622 24.52267075 0 0 0 0
208.08389282 237.66319275 24.21825981 0 0 0 0
188.55679321 255.64100647 37.12279129 0 0 0 0
261.16329956 241.96530151 50.54689026 0 0 0 0
230.82749939 216.96760559 64.78090668 0 0 0 0
230.16200256 217.74630737 65.30998993 0 0 0 0
209.78599548 233.87869263 22.99221039 0 0 0 0
210.45759583 233.21820068 22.80252075 0 0 0 0
209.67370605 235.01669312 23.17320061 0 0 0 0
210.75950623 234.35519409 22.86351967 0 0 0 0
270.59768677 228.60380554 24.69533920 0 0 0 0
269.51940918 229.44430542 24.90405083 0 0 0 0
270.62539673 229.65620422 25.56596947 0 0 0 0
269.77819824 228.38929749 24.21176910 0 0 0 0
271.73001099 228.91650391 25.35923958 0 0 0 0
271.54119873 227.62460327 24.30330086 0 0 0 0
270.42678833 227.58900452 23.90715981 0 0 0 0
171.64639282 230.39909363 57.24753952 0 0 0 0
172.69729614 230.15209961 56.23178864 0 0 0 0
173.55979919 231.23350525 56.34334946 0 0 0 0
250.17739868 206.64160156 61.89159012 0 0 0 0
249.45489502 207.43730164 62.07101822 0 0 0 0
248.40820312 207.69259644 61.39334106 0 0 0 0
275.36801147 197.83430481 40.94886017 0 0 0 0
275.95541382 197.19490051 40.02275085 0 0 0 0
294.32418823 246.68460083 52.88557816 0 0 0 0
294.77371216 246.36560059 51.81042099 0 0 0 0
295.58261108 247.06649780 51.29014969 0 0 0 0
189.23350525 245.16009521 58.08618927 0 0 0 0
190.80400085 244.55679321 59.02413940 0 0 0 0
190.46769714 245.28829956 58.51910019 0 0 0 0
199.06359863 238.73820496 63.61182022 0 0 0 0
198.80369568 239.81990051 63.16455078 0 0 0 0
261.11691284 214.10839844 18.74571991 0 0 0 0
261.62649536 215.21409607 18.78877068 0 0 0 0
262.40789795 214.09480286 19.01038933 0 0 0 0
262.85150146 215.01530457 19.01369095 0 0 0 0
261.87490845 213.13059998 18.98271942 0 0 0 0
263.70190430 214.18190002 19.29981995 0 0 0 0
263.08331299 213.06260681 19.28751945 0 0 0 0
282.91259766 206.50650024 33.02191925 0 0 0 0
283.60360718 206.01159668 33.90124893 0 0 0 0
198.06530762 245.28970337 60.81682968 0 0 0 0
259.55648804 233.48609924 71.47206116 0 0 0 0
258.89489746 233.58709717 70.76654053 0 0 0 0
280.66821289 224.94000244 27.86440086 0 0 0 0
242.18760681 204.86189270 44.69533920 0 0 0 0
269.42489624 205.52870178 51.00799179 0 0 0 0
259.99969482 241.48339844 57.21974182 0 0 0 0
260.83331299 242.02699280 57.13953018 0 0 0 0
278.40640259 235.53889465 76.36519623 0 0 0 0
277.46011353 235.38429260 77.05581665 0 0 0 0
259.00988770 190.97090149 27.72722054 0 0 0 0
258.18341064 190.68800354 28.59634972 0 0 0 0
187.38659668 212.16859436 58.67596054 0 0 0 0
186.18179321 212.17190552 59.14147186 0 0 0 0
186.23910522 212.23300171 58.08123016 0 0 0 0
186.90379333 212.22219849 57.30553818 0 0 0 0
272.78381348 245.65769958 66.39837646 0 0 0 0
244.73800659 254.85240173 41.05707169 0 0 0 0
229.85539246 256.92208862 53.26303864 0 0 0 0
230.97529602 256.54541016 54.97574997 0 0 0 0
230.91229248 256.97979736 54.00830841 0 0 0 0
280.06851196 204.89999390 64.13520813 0 0 0 0
281.63018799 203.49819946 63.35033035 0 0 0 0
281.19781494 204.56930542 63.39242935 0 0 0 0
239.29699707 256.50329590 65.61253357 0 0 0 0
240.29469299 256.68301392 66.30020905 0 0 0 0
255.37770081 192.58410645 33.40209961 0 0 0 0
255.63400269 192.99909973 34.44367981 0 0 0 0
231.99549866 256.38610840 55.71107101 0 0 0 0
263.91281128 222.45559692 66.43988800 0 0 0 0
250.52839661 229.98469543 19.84160995 0 0 0 0
250.21049500 231.01060486 20.22135925 0 0 0 0
249.78959656 229.04229736 19.39670944 0 0 0 0
251.57420349 230.69149780 20.22418976 0 0 0 0
251.59979248 229.79330444 19.86848068 0 0 0 0
251.24940491 229.00799561 19.54445076 0 0 0 0
191.57009888 213.87590027 35.34280014 0 0 0 0
192.37080383 213.92320251 34.33597946 0 0 0 0
192.44389343 213.00149536 35.23667145 0 0 0 0
191.21119690 214.80560303 34.78676987 0 0 0 0
191.78149414 213.18330383 36.01274872 0 0 0 0
190.62879944 214.68809509 35.75843048 0 0 0 0
191.02450562 213.85690308 36.39170837 0 0 0 0
219.38079834 201.87240601 40.61009979 0 0 0 0
168.55639648 219.33680725 57.42641068 0 0 0 0
169.50619507 218.88999939 57.27331161 0 0 0 0
168.91439819 218.17089844 57.59273148 0 0 0 0
169.70039368 219.82699585 56.97866058 0 0 0 0
168.00329590 218.35479736 57.74954987 0 0 0 0
168.82499695 220.79319763 57.07701111 0 0 0 0
167.80690002 220.21409607 57.46622086 0 0 0 0
167.08889771 219.09379578 57.81895065 0 0 0 0
176.90690613 222.03450012 70.39475250 0 0 0 0
269.01959229 234.59959412 77.96898651 0 0 0 0
268.21109009 235.59140015 77.97004700 0 0 0 0
254.15260315 247.52670288 35.30900955 0 0 0 0
255.06120300 247.51710510 36.42388916 0 0 0 0
256.07489014 246.71629333 35.98009109 0 0 0 0
254.01820374 197.02479553 38.99789047 0 0 0 0
174.06900024 268.00671387 52.65541840 0 0 0 0
274.25210571 195.50070190 55.82260895 0 0 0 0
274.14889526 194.47590637 56.19847107 0 0 0 0
253.30220032 262.84118652 55.75025940 0 0 0 0
236.90260315 214.86500549 62.29111099 0 0 0 0
237.86500549 215.16189575 62.27764893 0 0 0 0
265.69229126 195.28219604 66.42720032 0 0 0 0
266.16079712 194.40580750 66.00332642 0 0 0 0
250.41110229 259.28158569 66.35597992 0 0 0 0
229.62440491 210.69340515 23.25979042 0 0 0 0
230.71969604 210.79080200 22.58266068 0 0 0 0
231.50610352 209.76930237 23.04140091 0 0 0 0
226.26980591 203.58830261 40.68830109 0 0 0 0
227.59249878 203.94990540 40.62733078 0 0 0 0
228.45649719 203.93659973 41.58086014 0 0 0 0
219.92559814 254.15289307 43.64340973 0 0 0 0
219.48759460 254.18899536 44.79671097 0 0 0 0
220.53379822 254.21080017 44.77817917 0 0 0 0
220.15589905 254.30670166 45.92425919 0 0 0 0
220.96929932 254.16760254 43.72859955 0 0 0 0
221.42320251 254.23370361 44.70481873 0 0 0 0
221.27740479 254.34140015 45.70325851 0 0 0 0
275.03689575 229.38699341 51.61952972 0 0 0 0
275.83648682 227.50559998 51.76651001 0 0 0 0
251.62060547 204.32699585 55.69709015 0 0 0 0
184.11149597 256.33898926 55.27077103 0 0 0 0
231.42919922 216.21560669 64.21296692 0 0 0 0
268.71078491 228.81579590 24.04760933 0 0 0 0
269.73251343 230.38250732 25.81517982 0 0 0 0
221.54119873 254.13450623 39.21852112 0 0 0 0
221.32269287 254.09449768 38.21593857 0 0 0 0
221.35459900 254.14100647 40.31156158 0 0 0 0
170.98829651 230.73480225 58.13264084 0 0 0 0
171.07110596 231.62010193 59.14319992 0 0 0 0
251.04299927 205.92239380 61.89358902 0 0 0 0
296.37649536 250.19929504 51.53818893 0 0 0 0
